# .PCD v0.7 - Point Cloud Data file format
VERSION 0.7
FIELDS x y z label
SIZE 4 4 4 4
TYPE F F F U
COUNT 1 1 1 1
WIDTH 1268
HEIGHT 1
VIEWPOINT 0 0 0 1 0 0 0
POINTS 1268
DATA ascii
-0.050670765 -0.038226411 1.0222 100
-0.058488831 -0.026309591 1.0207 100
-0.040762983 -0.038196184 1.0214499 100
-0.046865005 -0.054229304 1.0253999 100
-0.054813806 -0.038357921 1.025775 100
-0.0540994 -0.021705797 1.0272 100
-0.054914001 -0.0065955073 1.02765 100
-0.046072129 -0.022859927 1.0253999 100
-0.038445104 -0.022207376 1.0219271 100
-0.037121017 -0.0079728058 1.0222 100
-0.036838733 0.027087448 1.0222 100
-0.05549445 0.00978046 1.0270154 100
-0.04379683 -0.0054768194 1.0257334 100
-0.040956929 0.0093124798 1.0263376 100
-0.067012094 0.023314571 1.0303999 100
-0.056936394 0.025259191 1.0282125 100
-0.057076801 0.041278895 1.03065 100
-0.057088867 0.057267174 1.0310248 100
-0.041513324 0.024921075 1.0260429 100
-0.040997606 0.041145895 1.0272751 100
-0.040998328 0.057058886 1.0272751 100
-0.024953034 -0.054002032 1.021075 10
-0.024946041 -0.03816741 1.0206999 10
-0.023994697 -0.024042087 1.0221999 10
-0.022567581 -0.0067789978 1.0222 10
-0.028034193 -0.017499337 1.0253999 10
-0.028175781 -0.0062959897 1.0254 10
-0.0091499109 -0.053901419 1.0192001 10
0.0065758368 -0.053651176 1.01445 10
-0.009150506 -0.038120143 1.0193876 10
-0.0091560464 -0.022340439 1.0197625 10
0.0065806597 -0.037957579 1.0151374 10
0.006576777 -0.022234539 1.0147624 10
-0.0091573671 -0.0065424698 1.01995 10
0.0065854834 -0.0065167281 1.015825 10
-0.019054687 0.019170616 1.0222 12
-0.021030691 0.058754776 1.0222 12
-0.025103368 0.0093172202 1.0269001 12
-0.025483722 0.025611969 1.0264001 12
-0.025150515 0.041211672 1.0289625 12
-0.025645031 0.056702465 1.0260428 12
-0.025143523 0.073066205 1.0285875 12
-0.0091661438 0.0092601264 1.0208875 12
0.0065952167 0.0092325239 1.017325 12
-0.0091709597 0.025086299 1.0212624 12
-0.0064073019 0.040928148 1.0218999 12
0.0065967957 0.024994917 1.0175126 12
0.0066093002 0.040807456 1.0188251 12
-0.0087186601 0.057232313 1.0221999 12
-0.0068693231 0.073598839 1.0221999 12
0.0069196085 0.058172904 1.0193578 12
0.006254822 0.075705543 1.0184941 12
-0.013828494 0.04107007 1.0254 12
-0.011185572 0.054967895 1.0253999 12
-0.01233725 0.075483009 1.0266857 12
-0.015149954 0.082763553 1.0253999 12
-0.13578244 0.11295002 1.0865999 14
-0.12309588 0.11287206 1.0858499 14
-0.13367005 0.14621206 1.0533999 14
-0.12189647 0.14457475 1.0513998 14
-0.13365811 0.12775078 1.0696 14
-0.13494934 0.12061197 1.0799333 14
-0.13324401 0.13647662 1.0639428 14
-0.1212523 0.12775078 1.0696 14
-0.12230428 0.12048936 1.0788499 14
-0.12229745 0.1361976 1.0635231 14
-0.1047698 0.11132219 1.0844333 14
-0.10365728 0.1257709 1.0678856 14
-0.10615936 0.1189283 1.0772667 14
-0.10671598 0.13531408 1.0607799 14
-0.088664763 0.11735761 1.0755999 14
-0.13252801 0.15304388 1.0444 14
-0.12302794 0.17382304 1.0192 15
-0.11821865 0.18476568 0.99207491 15
-0.12093972 0.20409402 0.99023062 15
-0.12519135 0.18787678 0.99669999 15
-0.12257586 0.17969042 1.0121999 15
-0.12024933 0.19768177 0.99619997 15
-0.10478686 0.17609555 0.99194998 15
-0.10702951 0.17325199 1.0183818 15
-0.095030226 0.17254011 1.0196285 15
-0.10674405 0.18450481 0.98760003 15
-0.1075464 0.20255072 0.98871255 15
-0.097519092 0.18040051 1.0161999 15
-0.11948819 0.22124664 0.97429991 15
-0.1213511 0.21348381 0.98019999 15
-0.11866025 0.22911172 0.96449995 15
-0.10942347 0.21235661 0.98200005 15
-0.099554643 0.20660791 0.95120001 100
-0.09613692 0.19706038 0.963 100
-0.11891714 0.23630844 0.958 100
-0.11486944 0.25181934 0.90523994 100
-0.1195087 0.25107533 0.9418 100
-0.11971693 0.2451563 0.95069999 100
-0.10274252 0.22099295 0.93389088 100
-0.10900899 0.24387737 0.91479999 100
-0.11032984 0.21987641 0.97324991 100
-0.11137532 0.22760053 0.96599996 100
-0.039605141 0.10467239 1.0222 100
-0.057098165 0.073250495 1.0312123 100
-0.057087418 0.089204274 1.0310248 100
-0.056196671 0.10454663 1.0303999 100
-0.0575248 0.11971203 1.0306308 100
-0.041019689 0.088926658 1.0278376 100
-0.041562781 0.10467658 1.0278546 100
-0.041113298 0.11904975 1.0301499 100
-0.024683334 0.11948238 1.028631 100
-0.068357259 0.12981549 1.0207 100
-0.073295176 0.14369982 1.0071999 100
-0.071478687 0.13767847 1.0145999 100
-0.068688259 0.12401172 1.0316 100
-0.083539143 0.16044688 0.99019998 100
-0.086118408 0.17704354 0.97600001 100
-0.086303875 0.17111358 0.98299992 100
-0.089938655 0.18777469 0.96972221 100
-0.096572377 0.18282783 0.98000002 100
-0.074025892 0.16056842 0.99094999 100
-0.072921991 0.17708889 0.97624999 100
-0.073487878 0.16891211 0.98371261 100
-0.056604944 0.1760329 0.97460002 100
-0.058548395 0.16823627 0.98200005 100
-0.074357055 0.1528177 1.0006 100
-0.073571503 0.18591711 0.96699977 100
-0.057678834 0.18445061 0.96733326 100
-0.10704528 0.14396426 1.0518999 22
-0.089885741 0.14261557 1.0509999 22
-0.089125365 0.12470288 1.0672444 22
-0.093025453 0.13428152 1.0594443 22
-0.078580059 0.14232565 1.0253999 22
-0.077865176 0.13643561 1.0513999 22
-0.076614797 0.1244985 1.0655556 22
-0.081032336 0.13857782 1.0574 22
-0.081401341 0.14818634 1.0112 22
-0.13138597 0.1597518 1.0354 22
-0.13062459 0.1667909 1.0294 22
-0.12173003 0.16021466 1.0383999 22
-0.12234887 0.15293592 1.04365 22
-0.12023164 0.16593038 1.029 22
-0.10495437 0.15879713 1.0378999 22
-0.10647038 0.15193386 1.0423 22
-0.10465818 0.16464104 1.0283999 22
-0.090302899 0.1572872 1.0324999 22
-0.091134928 0.1494714 1.0420001 22
-0.093208224 0.16498506 1.0264 22
-0.02004269 0.095370121 1.0222 100
-0.021425894 0.10546409 1.0222 100
-0.041066758 0.073092118 1.0289624 100
-0.025958942 0.088296674 1.0271143 100
-0.027953021 0.10537261 1.0264001 100
-0.0091734715 0.092365965 1.0218248 100
-0.0086087277 0.1073397 1.0217713 100
0.0065889005 0.09189067 1.0165751 100
0.0066031129 0.10781913 1.0182625 100
0.022262856 0.10741916 1.0145124 100
-0.013167763 0.11453 1.0253999 100
-0.013175149 0.12253135 1.0259 100
-0.055567052 0.12787871 1.0187714 25
-0.05967271 0.1437355 1.00745 25
-0.058112495 0.13683823 1.0142 25
-0.040713742 0.12779003 1.0203249 25
-0.04213313 0.1436713 1.007 25
-0.040464263 0.13680379 1.0139499 25
-0.025829557 0.12830979 1.0222 25
-0.024581201 0.14352149 1.00595 25
-0.024770677 0.13672476 1.0133666 25
-0.057377215 0.15916485 0.99020004 25
-0.059779558 0.15148775 0.9998427 25
-0.043407738 0.15876688 0.99169999 25
-0.041163597 0.17561589 0.97114283 25
-0.043534487 0.16783909 0.98221433 25
-0.025637193 0.15900606 0.99020004 25
-0.027208444 0.17414236 0.97459996 25
-0.025375554 0.16655684 0.98267144 25
-0.043032628 0.15012765 1.0001229 25
-0.026128285 0.15160897 0.99994987 25
-0.042384759 0.18275326 0.96445459 25
-0.027311197 0.1824853 0.96483344 25
-0.0067907805 0.1250284 1.0204 25
-0.0090086162 0.14513516 1.0036999 25
-0.009078959 0.13653779 1.0119499 25
-0.0082391882 0.15764269 0.98868889 25
-0.0092394287 0.17373551 0.97290897 25
-0.009185059 0.16575591 0.98079997 25
-0.0097729517 0.15156367 0.99662864 25
-0.011459417 0.18158485 0.96500009 25
-0.090667225 0.20797081 0.94479996 100
-0.089297049 0.20258813 0.95402217 100
-0.10519586 0.23525833 0.92084557 100
-0.09014006 0.23474582 0.92074996 100
-0.090045087 0.21832463 0.93576556 100
-0.10547938 0.25085953 0.90523648 100
-0.074805409 0.19272892 0.95999998 100
-0.070577011 0.20797081 0.94479996 100
-0.074873775 0.2014764 0.95428425 100
-0.05569943 0.19178465 0.95899999 100
-0.055981651 0.20806812 0.94157767 100
-0.058074322 0.20046653 0.95267773 100
-0.073388524 0.22486328 0.92646664 100
-0.068186596 0.23980941 0.91279995 100
-0.074553214 0.23402195 0.92032182 100
-0.058434095 0.22356553 0.92604995 100
-0.056969162 0.23949432 0.91039997 100
-0.058433805 0.23144507 0.91956913 100
-0.073840782 0.2165513 0.93622094 100
-0.058970969 0.21579076 0.93646663 100
-0.058854144 0.24881668 0.90177637 100
-0.082483232 0.25609961 0.89559996 100
-0.089705423 0.26642954 0.89032006 100
-0.072852664 0.25676236 0.89274293 100
-0.074622184 0.26694861 0.88608003 100
-0.090371303 0.25007042 0.90527153 100
-0.096656121 0.26043728 0.89859998 100
-0.07391154 0.24813056 0.90632725 100
-0.075964689 0.28356683 0.88798463 100
-0.061095539 0.28785917 0.88660002 100
-0.10567835 0.26716805 0.8920545 100
-0.10881566 0.26043728 0.89859998 100
-0.10423236 0.27717584 0.89200002 100
-0.099795982 0.29424945 0.89559996 100
-0.087328911 0.28213146 0.89015555 100
-0.089032114 0.29708713 0.89371109 100
-0.11485168 0.28510818 0.90509999 100
-0.11582877 0.29283094 0.91279995 100
-0.11608256 0.29878634 0.91479999 100
-0.10708878 0.28566644 0.90132731 100
-0.10533651 0.29910985 0.90593338 100
-0.11254577 0.30055761 0.91479999 100
-0.093961306 0.28714022 0.89939994 100
-0.095895141 0.29818314 0.89959997 100
-0.10057599 0.30703512 0.90259999 100
-0.09462171 0.31123415 0.90126663 100
-0.041914545 0.19039431 0.95762503 30
-0.04122233 0.20728469 0.94171667 30
-0.041622106 0.19824755 0.95085007 30
-0.027114544 0.19046961 0.95800006 30
-0.027206633 0.20805155 0.93968892 30
-0.026548572 0.19973746 0.95094669 30
-0.042248502 0.22316709 0.92439997 30
-0.040627282 0.23943664 0.90806657 30
-0.042600229 0.23197259 0.91913319 30
-0.02536734 0.23941231 0.90863991 30
-0.026271088 0.23177131 0.91901416 30
-0.042173434 0.21667977 0.93394285 30
-0.026076 0.21785474 0.93386668 30
-0.041150492 0.2469895 0.90033317 30
-0.0091290055 0.18957055 0.95749998 30
-0.0089516174 0.20687434 0.93987149 30
-0.012088311 0.19916159 0.95053333 30
-0.010089449 0.22515316 0.92519999 30
-0.010018908 0.23068519 0.91873324 30
-0.010170642 0.21782498 0.93219995 30
-0.056760155 0.25598428 0.89399993 100
-0.054937687 0.27196163 0.87959999 100
-0.058033552 0.26526269 0.88572502 100
-0.042503539 0.25511909 0.8921833 100
-0.041793764 0.27123436 0.87726659 100
-0.042150717 0.26327524 0.88476664 100
-0.026527973 0.27125511 0.87733322 100
-0.026772933 0.26346266 0.88539994 100
-0.068705857 0.27783769 0.87880003 100
-0.056440912 0.2787506 0.87701166 100
-0.041633286 0.28200674 0.87378746 100
-0.026020207 0.28152102 0.87104762 100
-0.028579444 0.29836321 0.88350904 100
-0.0099929301 0.27076045 0.87709987 100
-0.0094867023 0.28229895 0.86951989 100
-0.0093768723 0.29967949 0.87651092 100
0.0043512103 0.30118069 0.87322217 100
-0.15342967 -0.0671186 1.2757428 34
-0.15492468 -0.056684751 1.269225 34
-0.13879339 -0.057224747 1.2676001 34
-0.13629603 -0.11511891 1.3267 34
-0.16626909 -0.09974578 1.3102999 34
-0.16417536 -0.080949344 1.2938 34
-0.16563463 -0.089255765 1.3053 34
-0.15472977 -0.10013539 1.3106571 34
-0.15417123 -0.080949344 1.2938 34
-0.15494578 -0.08891388 1.3003 34
-0.16529816 -0.10837615 1.3227999 34
-0.15231411 -0.1082396 1.3211333 34
-0.16319826 -0.073001891 1.2860999 34
-0.15355158 -0.075633958 1.2886 34
-0.13728155 -0.099356152 1.3099428 34
-0.13916503 -0.080949344 1.2938 34
-0.13683096 -0.10810306 1.3194666 34
-0.12391454 -0.1079665 1.3177999 34
-0.1386057 -0.075633958 1.2886 34
-0.14971375 0.012211539 1.1944 35
-0.15035287 0.003927825 1.2032 35
-0.14618179 0.052832335 1.152 35
-0.14936683 0.028908974 1.1770999 35
-0.14745073 0.044277187 1.1620001 35
-0.14859279 0.03556516 1.171 35
-0.15064846 0.022265071 1.1872 35
-0.13787349 0.01195518 1.1925333 35
-0.14337519 0.003927825 1.2032 35
-0.12168568 0.048371278 1.152 35
-0.13866515 0.059150804 1.1451429 35
-0.12155969 0.056534372 1.1450909 35
-0.13795906 0.026613206 1.1767668 35
-0.13793422 0.043349635 1.1613001 35
-0.14180183 0.03556516 1.171 35
-0.12189505 0.026585653 1.175511 35
-0.12260836 0.041016072 1.1607144 35
-0.15508875 -0.049582474 1.2606 36
-0.15161692 -0.0030928666 1.2133 36
-0.15284966 -0.032032836 1.2424001 36
-0.15200098 -0.017866705 1.2278 36
-0.1517424 -0.024631249 1.2334 36
-0.15421526 -0.042026114 1.2535 36
-0.15250219 -0.010193831 1.2204 36
-0.13635741 -0.050480135 1.2586 36
-0.12143401 -0.014870864 1.2164 36
-0.13746986 -0.005442834 1.2126801 36
-0.13839181 -0.034431245 1.2419554 36
-0.13982104 -0.024631249 1.2334 36
-0.12228256 -0.022098534 1.2248999 36
-0.12313113 -0.029407524 1.2334 36
-0.13944249 -0.044374634 1.2514 36
-0.14542475 -0.010193831 1.2204 36
-0.13731495 -0.067518152 1.2766 38
-0.12237775 -0.066951692 1.2752 38
-0.12171369 -0.059706613 1.2682666 38
-0.10688519 -0.069250003 1.274225 38
-0.090876579 -0.070279047 1.2735091 38
-0.078088149 -0.072461709 1.2765999 38
-0.07776469 -0.11264061 1.3127999 38
-0.13995382 -0.088972479 1.3011333 38
-0.11991841 -0.10080864 1.3099428 38
-0.12157798 -0.083400197 1.2929333 38
-0.12363128 -0.090316109 1.2988 38
-0.12342473 -0.074244551 1.2860999 38
-0.10532444 -0.10213694 1.3083556 38
-0.10473319 -0.08513087 1.2886599 38
-0.090108998 -0.10209573 1.3077999 38
-0.08882682 -0.085666388 1.2892222 38
-0.11325473 -0.075340487 1.2836 38
-0.077325262 -0.10190058 1.3052999 38
-0.077730693 -0.087044351 1.2911999 38
-0.1216047 -0.0049597779 1.2087201 39
-0.12246787 0.010151823 1.1937714 39
-0.10668347 0.017608175 1.1832 39
-0.089380048 0.016432196 1.18115 39
-0.10348978 -0.00072907191 1.1991999 39
-0.10716574 -0.006754288 1.2070571 39
-0.10609065 0.0089530153 1.1919998 39
-0.089580812 -0.00072907191 1.1991999 39
-0.09014494 -0.007749733 1.2067 39
-0.091863513 0.0079132859 1.1911999 39
-0.076720424 0.012978847 1.1797143 39
-0.075549498 -0.00072785595 1.1971999 39
-0.076005541 -0.0077309376 1.2044499 39
-0.1063648 0.025101252 1.1768668 39
-0.078552172 0.0050347289 1.1902 40
-0.10597958 0.04831529 1.1506666 40
-0.090351656 0.04605677 1.1499999 40
-0.10635879 0.055487692 1.1411427 40
-0.088545233 0.061214432 1.134618 40
-0.090888225 0.053164918 1.14 40
-0.076715432 0.042563647 1.1502857 40
-0.075907417 0.060750622 1.1334666 40
-0.076343656 0.052281998 1.14 40
-0.10447081 0.030924523 1.1669999 40
-0.10612816 0.039331876 1.1621001 40
-0.088154018 0.029741742 1.165 40
-0.090707771 0.02379011 1.1717999 40
-0.090046033 0.037738692 1.1582857 40
-0.080132097 0.028558958 1.1629999 40
-0.080683313 0.021961253 1.171 40
-0.079649799 0.035109587 1.156 40
-0.12065616 -0.051888943 1.2572666 42
-0.10607047 -0.054326519 1.2572665 42
-0.091421902 -0.05428981 1.2563332 42
-0.10732555 -0.014870864 1.2164 42
-0.090865664 -0.014870864 1.2164 42
-0.13690791 -0.017926123 1.2233999 42
-0.12248608 -0.037134942 1.2406856 42
-0.12261383 -0.044411864 1.25245 42
-0.10584674 -0.03637765 1.2384001 42
-0.10476249 -0.021771127 1.2256857 42
-0.10787179 -0.028452268 1.2334 42
-0.089608088 -0.038570631 1.23965 42
-0.089132763 -0.022098534 1.2248999 42
-0.089751303 -0.029407524 1.2334 42
-0.10557552 -0.044374634 1.2514 42
-0.095899247 -0.044374634 1.2514 42
-0.070963621 -0.048709292 1.2384 42
-0.079546303 -0.06422729 1.2606 42
-0.07905411 -0.054132506 1.2528 42
-0.076492161 -0.014819518 1.2121999 42
-0.077057734 -0.039781477 1.2373999 42
-0.077212326 -0.02444391 1.2235667 42
-0.16399598 -0.12985972 1.3329999 43
-0.16594797 -0.1139448 1.3279999 43
-0.16657278 -0.12211676 1.3329999 43
-0.15484168 -0.13516784 1.3429999 43
-0.15387766 -0.12227268 1.3346667 43
-0.15292571 -0.13664237 1.349 43
-0.14445712 -0.14643601 1.3429999 43
-0.14056291 -0.13343427 1.3429999 43
-0.13603672 -0.14764187 1.354 43
-0.11926413 -0.16375485 1.3718333 43
-0.12116907 -0.14675419 1.3555 43
-0.12571417 -0.1541207 1.365 43
-0.13988702 -0.13664237 1.349 43
-0.15311225 -0.1139448 1.3279999 45
-0.13946986 -0.12282006 1.335 45
-0.123688 -0.13083392 1.3429999 45
-0.12206707 -0.11629302 1.3253999 45
-0.12276702 -0.12469774 1.3329999 45
-0.10691557 -0.13271937 1.3409998 45
-0.10655177 -0.117243 1.3236285 45
-0.10730617 -0.12469774 1.3329999 45
-0.092189819 -0.13294715 1.3379999 45
-0.090553194 -0.11805809 1.323525 45
-0.09699893 -0.12469774 1.3329999 45
-0.1242406 -0.13664237 1.349 45
-0.10380657 -0.14770675 1.3545556 45
-0.089273579 -0.1629685 1.3727001 45
-0.088057429 -0.14764832 1.354 45
-0.11380964 -0.13664237 1.349 45
-0.079109348 -0.13269395 1.3355 45
-0.078511074 -0.12142555 1.3253999 45
-0.072620176 -0.15870591 1.359 45
-0.076746471 -0.16354989 1.3701334 45
-0.077587806 -0.14764832 1.354 45
-0.13980617 0.081637189 1.1187999 48
-0.11894517 0.08033517 1.1157999 48
-0.13106778 0.065341838 1.1367999 48
-0.13755764 0.073940046 1.1278 48
-0.12227764 0.065341838 1.1367999 48
-0.12375107 0.074145988 1.1247998 48
-0.10585281 0.079571925 1.1159428 48
-0.10585002 0.063389495 1.1356571 48
-0.10502468 0.071890265 1.1245776 48
-0.13464177 0.096505344 1.10305 48
-0.13714844 0.089079812 1.110425 48
-0.1350255 0.10464095 1.0932249 48
-0.12109239 0.094193369 1.101025 48
-0.12192298 0.087182522 1.1106571 48
-0.12266883 0.10559434 1.0932999 48
-0.10793517 0.1043839 1.0939 48
-0.088583112 0.080189228 1.1138 49
-0.090967499 0.072716892 1.1233 49
-0.088941708 0.11073088 1.0825999 49
-0.10670261 0.095408209 1.0992571 49
-0.1064534 0.087384664 1.1093 49
-0.090072416 0.093398288 1.099709 49
-0.092707545 0.086074635 1.109 49
-0.090273537 0.10366665 1.0922666 49
-0.076114401 0.078173928 1.113657 49
-0.078326151 0.070708662 1.1242 49
-0.074638382 0.1083996 1.0832667 49
-0.06567087 0.11159869 1.0735999 49
-0.076153956 0.11799661 1.0750999 49
-0.065426201 0.11532487 1.0696 49
-0.075630553 0.092835225 1.0976666 49
-0.076328762 0.085124455 1.1078 49
-0.075143658 0.10069595 1.0906 49
-0.15103702 -0.21445489 1.6871333 50
-0.13863555 -0.21594098 1.6818 50
-0.27197605 -0.29613754 2.6227999 51
-0.2782186 -0.31332445 2.6829998 52
-0.31178176 -0.30532837 2.7042 52
-0.29609936 -0.31580022 2.7042 52
-0.34581131 -0.31825262 2.7251999 53
-0.33176315 -0.32177037 2.7251999 53
-0.28644031 -0.30067649 2.6629999 54
-0.26383245 -0.30862984 2.6427999 54
-0.24339736 -0.31886393 2.6427999 54
-0.2536149 -0.30862984 2.6427999 54
-0.24525774 -0.33161348 2.6629999 54
-0.25747266 -0.32371423 2.6829998 54
-0.25950715 -0.33674398 2.7042 54
-0.26996207 -0.3262721 2.7042 54
-0.28489667 -0.34212351 2.7474 55
-0.29551861 -0.33148438 2.7474 55
-0.28489667 -0.33148438 2.7474 55
-0.28172272 -0.35545903 2.7684 55
-0.2636528 -0.35276267 2.7474 55
-0.27205849 -0.33935902 2.7251999 55
-0.32774723 -0.26566759 2.6227999 56
-0.34045637 -0.28215513 2.6829998 57
-0.2989645 -0.30293468 2.6829998 57
-0.31492013 -0.27792752 2.6427999 57
-0.32762286 -0.28005186 2.6629999 57
-0.30703157 -0.29036415 2.6629999 57
-0.29448506 -0.28816164 2.6427999 57
-0.34314653 -0.34197992 2.7042 58
-0.34314653 -0.3262721 2.7042 58
-0.34314653 -0.30532837 2.7042 58
-0.34314653 -0.29485649 2.7042 58
-0.33269161 -0.33674398 2.7042 58
-0.32746416 -0.30532837 2.7042 58
-0.32746416 -0.29485649 2.7042 58
-0.3352752 -0.34991223 2.7251999 59
-0.32738447 -0.35276267 2.7474 59
-0.32738447 -0.33148438 2.7474 59
-0.31420296 -0.31825262 2.7251999 59
-0.31145155 -0.33148438 2.7474 59
-0.32988685 -0.34473854 2.7684 59
-0.31383216 -0.35545903 2.7684 59
-0.31383216 -0.34473854 2.7684 59
-0.29777744 -0.35545903 2.7684 59
-0.29777744 -0.34473854 2.7684 59
-0.069107234 0.30602366 0.87959999 62
-0.074320748 0.29905826 0.88799137 62
-0.056380279 0.30412325 0.87848878 62
-0.057997119 0.2968736 0.88669515 62
-0.057626236 0.31390765 0.87359989 62
-0.041126274 0.30124503 0.87760001 62
-0.04275912 0.29769927 0.88319999 62
-0.025515692 0.30109781 0.87821525 62
-0.042818833 0.31892309 0.86380005 62
-0.027245412 0.32013783 0.86406666 62
-0.019072466 0.33748052 0.84739995 62
-0.025762184 0.32937333 0.85527074 62
-0.042866442 0.3120335 0.87187368 62
-0.026055008 0.31279516 0.87084156 62
-0.011333985 0.30364954 0.88259995 62
-0.0094150826 0.3184793 0.86260003 62
-0.009329129 0.32730308 0.85515982 62
-0.0094928239 0.31123596 0.87039995 62
0.0056498684 0.3113482 0.8707124 62
-0.085684769 0.313223 0.89285004 63
-0.068754844 0.31330007 0.87817144 63
-0.076931015 0.3135412 0.88596362 63
-0.070360869 0.32488716 0.88459998 63
-0.057122752 0.32710174 0.87226653 63
-0.064224496 0.32928324 0.88259995 63
-0.041657604 0.32910562 0.86057395 63
-0.049647029 0.3349821 0.8664 63
-0.039419103 0.34178263 0.8624 63
-0.01905746 0.34377548 0.84673327 63
-0.027149357 0.34557453 0.85555387 63
-0.18332444 0.58683842 1.6264 66
-0.20208536 0.57148075 1.6425999 66
-0.20613538 0.57391608 1.6495999 66
-0.20062014 0.59072393 1.6380284 66
-0.20613538 0.58349812 1.6495999 66
-0.18846181 0.58768713 1.6345999 66
-0.20023 0.63740826 1.5974 67
-0.1998833 0.64562953 1.5752 67
-0.19909215 0.64687824 1.5932999 67
-0.18787834 0.63740826 1.5974 67
-0.1877033 0.64562953 1.5752 67
-0.18678804 0.64687824 1.5932999 67
-0.16406913 0.64237159 1.5821999 67
-0.17069142 0.63699633 1.5950571 67
-0.16993523 0.6475423 1.5798665 67
-0.1740112 0.6452136 1.5891999 67
-0.19738568 0.63274598 1.6043999 67
-0.18187845 0.63274598 1.6043999 67
-0.17257409 0.63274598 1.6043999 67
-0.20323628 0.60993165 1.6264 68
-0.20048714 0.6234265 1.6043999 68
-0.20279893 0.61803913 1.6229 68
-0.18437243 0.60363346 1.6264 68
-0.18432048 0.6228646 1.6063998 68
-0.18844576 0.61767721 1.6236 68
-0.20110114 0.60351187 1.6345998 68
-0.19478148 0.61300671 1.6345999 68
-0.17494048 0.59103715 1.6264 69
-0.16975954 0.60562772 1.625 69
-0.1696575 0.61787665 1.6061498 69
-0.15467927 0.60688734 1.625 69
-0.15259677 0.61490357 1.6229 69
-0.16950285 0.60034692 1.6346 69
-0.14006144 0.61803913 1.6229 69
-0.13857947 0.62236774 1.6425999 69
-0.14711781 0.62379944 1.5974 70
-0.15472558 0.63859761 1.5804499 70
-0.15329364 0.63307816 1.5973998 70
-0.15420824 0.64562953 1.5752 70
-0.15556774 0.61913919 1.6067332 70
-0.13785405 0.62379944 1.5974 70
-0.14096895 0.64012939 1.5804499 70
-0.13761817 0.63507199 1.5946666 70
-0.13969783 0.61914223 1.6067333 70
-0.12726496 0.62329316 1.6067333 70
-0.12241446 0.62379944 1.5974 72
-0.13898322 0.64562953 1.5752 72
-0.11921061 0.63828695 1.5821999 72
-0.12414831 0.63247102 1.5933 72
-0.1207132 0.64562953 1.5752 72
-0.089862041 0.64276046 1.5682 72
-0.10619364 0.6352073 1.5766 72
-0.10335366 0.63290542 1.5891999 72
-0.10548818 0.64562953 1.5752 72
-0.096353166 0.63647968 1.5752 72
-0.025951805 -0.17875671 1.3922 73
-0.0097503234 -0.17777233 1.3845333 73
0.006293057 -0.17734432 1.3812 73
0.022312963 -0.17734432 1.3812 73
0.038332868 -0.17734432 1.3812 73
0.022216031 -0.17124854 1.3751999 73
0.038166348 -0.17124854 1.3751999 73
0.054116663 -0.17657392 1.3751999 73
0.070066981 -0.17657392 1.3751999 73
0.054893516 -0.16825253 1.3681198 73
0.069628902 -0.16754793 1.3667332 73
0.086017288 -0.17657392 1.3751999 75
0.1019676 -0.17657392 1.3751999 75
0.074495718 -0.15870591 1.359 75
0.084899746 -0.1611426 1.3573333 75
0.085379295 -0.16997838 1.3650001 75
0.10006572 -0.16323775 1.3583751 75
0.10648865 -0.16997838 1.365 75
0.11748919 -0.17593193 1.3701998 75
0.13320607 -0.17570938 1.3684667 75
0.11646483 -0.16237877 1.3582858 75
0.11704332 -0.16997838 1.365 75
0.11652883 -0.15344325 1.3589998 75
0.13207278 -0.16370259 1.3567778 75
0.13229126 -0.15344325 1.3589998 75
0.14870733 -0.17526428 1.3650001 76
0.16453934 -0.17526428 1.3650001 76
0.1670797 -0.15015078 1.3429998 76
0.148661 -0.16296935 1.355 76
0.14983951 -0.15259644 1.3515 76
0.16546226 -0.16389161 1.3534445 76
0.18203074 -0.17433336 1.3577499 76
0.18107793 -0.14911254 1.3389999 76
0.18232782 -0.16330902 1.3534445 76
0.021651957 -0.11573433 1.0044 77
0.036772504 -0.11547216 0.9998666 77
0.073491104 -0.11191534 0.99119997 77
0.051447708 -0.1138787 0.99720001 77
0.064236991 -0.11247988 0.99619997 77
0.02350832 -0.10149517 1.0075569 77
0.037609857 -0.10180321 1.0051999 77
0.074411258 -0.10598737 0.9932 77
0.052877076 -0.10127898 0.99994981 77
0.068153605 -0.10035858 0.99720001 77
0.086869091 -0.10227513 0.99082512 77
0.0065639107 -0.084919468 1.0125749 78
0.0065672677 -0.069252752 1.0128875 78
0.01763886 -0.097204976 1.0112 78
0.025196681 -0.087063126 1.0081998 78
0.019810794 -0.082846969 1.0112 78
0.038560849 -0.085111029 1.0081998 78
0.031973626 -0.080889061 1.0112 78
0.027980885 -0.070888571 1.0081999 78
0.020846639 -0.068689778 1.0112 78
0.03931826 -0.068235941 1.00745 78
0.032950997 -0.071099505 1.0112 78
0.05303514 -0.084112979 1.0029501 78
0.052995481 -0.068527676 1.0022 78
0.069315881 -0.067848161 0.99853325 78
0.070361137 -0.084944919 0.99862874 79
0.09156277 -0.091628551 0.9932 79
0.10177606 -0.086300552 0.99008244 79
0.086089395 -0.084001556 0.99653327 79
0.11708688 -0.086611509 0.98720002 79
0.027980885 -0.049415465 1.0081999 80
0.021362176 -0.054037739 1.0112 80
0.038475182 -0.053469833 1.0081998 80
0.034579944 -0.052825689 1.0112 80
0.027980885 -0.041607067 1.0081999 80
0.021381645 -0.037290007 1.0121999 80
0.02220396 -0.022158226 1.0114499 80
0.040428177 -0.037682749 1.0075999 80
0.033276785 -0.037815053 1.0112 80
0.037717488 -0.022080861 1.0080123 80
0.022199921 -0.006488503 1.0112 80
0.039054908 -0.0060158069 1.0077384 80
0.031973626 -0.0084464112 1.0112 80
0.053094637 -0.053103689 1.0040751 80
0.053026311 -0.037499163 1.0027626 80
0.068340436 -0.021905331 0.99994993 80
0.053049177 -0.0064430544 1.0033251 80
0.068354338 -0.0064171553 1.0001374 80
0.022218008 0.0091838455 1.0121999 81
0.040540729 0.007629252 1.0081998 81
0.034207616 0.011132681 1.0112 81
0.053105641 0.0091165472 1.0042627 81
0.022213003 0.024857435 1.0119499 81
0.022225277 0.04251837 1.01265 81
0.039374694 0.027016781 1.0081998 81
0.035101213 0.022880137 1.0112 81
0.041623473 0.038429063 1.0081999 81
0.036860477 0.043927662 1.0112 81
0.022260424 0.06025603 1.0141375 81
0.022276165 0.076021716 1.0148875 81
0.041623473 0.065758467 1.0081999 81
0.037292901 0.059265941 1.0116285 81
0.037854627 0.075782105 1.0116999 81
0.053283077 0.026702881 1.0075998 81
0.054102089 0.04368997 1.0073428 81
0.047611553 0.048332959 1.0112 81
0.068684965 0.026637634 1.0050499 81
0.068607748 0.044096295 1.0038877 81
0.05564177 0.073496491 1.0071999 81
0.050404038 0.078261003 1.0112 81
0.068880975 -0.053203784 0.99955291 82
0.092842728 -0.064064726 0.9932 82
0.10257848 -0.069314972 0.99162114 82
0.10326529 -0.053075828 0.99320012 82
0.085449435 -0.069107488 0.99657482 82
0.085862555 -0.052404609 0.99667358 82
0.096974649 -0.048827305 0.99619997 82
0.053141676 -0.022011511 1.0050125 82
0.069371887 -0.037800204 0.99936664 82
0.10372242 -0.036821414 0.99320006 82
0.10433612 -0.021750534 0.99295002 82
0.086302072 -0.036836639 0.99653327 82
0.085555859 -0.021857874 0.99785006 82
0.098900393 -0.038218543 0.99619997 82
0.096974649 -0.021823183 0.99619997 82
0.085528977 -0.006400045 0.99755001 82
0.11724321 -0.069501497 0.9885 82
0.117375 -0.052336641 0.98963755 82
0.11744304 -0.037026353 0.99020004 82
0.11748414 -0.021700686 0.99057508 82
0.068463519 0.0090926159 1.0018251 83
0.1043624 -0.0082960613 0.9932 83
0.10820229 0.014780628 0.9932 83
0.085635915 0.0090638436 0.99875009 83
0.10027593 -0.0039122826 0.99620003 83
0.10238621 0.0086558778 0.99639988 83
0.10820229 0.028242029 0.9932 83
0.085621327 0.026460674 0.99860007 83
0.085675091 0.043890037 0.99920005 83
0.10132583 0.025920497 0.9963873 83
0.11751524 -0.0063570384 0.99082506 83
0.11806238 0.0088753402 0.99220008 83
0.1123806 0.010967541 0.99619997 83
0.11800817 0.026705353 0.99241066 83
0.11913121 0.043182708 0.99320006 83
0.1123806 0.018683005 0.99619997 83
0.1123806 0.045687128 0.99619991 83
0.12136763 0.057637338 0.99319994 83
0.18207557 -0.096124388 0.96750003 84
0.19782501 -0.085187301 0.96627778 84
0.1975968 -0.070099585 0.97024995 84
0.21185724 -0.082712941 0.96399999 84
0.21337521 -0.069736734 0.96524984 84
0.22564806 -0.068775944 0.96299994 84
0.10187889 -0.10196029 0.98777503 85
0.11615376 -0.10075267 0.98392856 85
0.13808015 -0.10192551 0.97640002 85
0.131374 -0.098691963 0.98118186 85
0.1339217 -0.086393788 0.98472005 85
0.14981619 -0.097978055 0.97662508 85
0.1445052 -0.095373347 0.97899997 85
0.1530236 -0.088872872 0.97700006 85
0.14847079 -0.084099449 0.98019999 85
0.16552176 -0.096561298 0.97399998 85
0.16633621 -0.08555153 0.97621053 85
0.18242463 -0.08541093 0.97229409 85
0.19240582 -0.093814641 0.963 85
0.19784498 -0.053248346 0.97144985 87
0.21365589 -0.052982587 0.96651983 87
0.22747214 -0.052853484 0.96415383 87
0.19821216 -0.036395863 0.97324991 87
0.19821216 -0.021320429 0.97324991 87
0.19832635 -0.0062453332 0.97381246 87
0.21426661 -0.036245633 0.96929997 87
0.21392591 -0.021201396 0.96774995 87
0.23007919 -0.021136964 0.96487492 87
0.2139736 -0.0062083704 0.96795005 87
0.23038159 -0.0061999983 0.96612483 87
0.25092617 0.0085029714 0.95977771 87
0.23894496 -0.030418806 0.963 87
0.2433662 0.011767395 0.96300012 87
0.13416776 -0.069365829 0.98653603 88
0.13413356 -0.052158557 0.98627996 88
0.15018679 -0.069874555 0.98183346 88
0.15126282 -0.053057022 0.98333329 88
0.16656549 -0.071380533 0.97678584 88
0.16090684 -0.068835467 0.97899991 88
0.16876218 -0.061128084 0.977 88
0.16501147 -0.052861813 0.97966671 88
0.13421997 -0.036907073 0.98692 88
0.13424236 -0.021622462 0.98707992 88
0.13433883 -0.0063385093 0.9878 88
0.15101355 -0.036813147 0.98443741 88
0.15110311 -0.021577829 0.98499984 88
0.1706508 -0.03464441 0.977 88
0.16416298 -0.037082851 0.97992313 88
0.17065081 -0.025185959 0.977 88
0.16493754 -0.020957811 0.9815715 88
0.15110311 -0.0063203876 0.98499984 88
0.17065081 -0.0043773632 0.977 88
0.16514215 -0.0064182812 0.98020005 88
0.18196234 -0.070126913 0.97478944 88
0.18175209 -0.05349553 0.97579986 88
0.18178061 -0.036495965 0.97595006 88
0.18231891 -0.021496451 0.97668439 88
0.17478512 -0.019550828 0.97899997 88
0.18513028 -0.0075301821 0.97700018 88
0.17762387 -0.0043863235 0.97900003 88
0.13401987 0.010556888 0.98778313 89
0.15085453 0.011227329 0.98637134 89
0.16587351 0.010817416 0.98230016 89
0.18575981 0.010756161 0.97700018 89
0.17683831 0.010791575 0.9799 89
0.13262141 0.028128289 0.98920006 89
0.13273144 0.043489262 0.99001253 89
0.13290584 0.058898818 0.99132508 89
0.14953211 0.028071314 0.98724002 89
0.14965142 0.043400854 0.98802006 89
0.16601561 0.027957717 0.98312491 89
0.16630311 0.043259159 0.98481238 89
0.14957523 0.058674075 0.98753989 89
0.16630311 0.058511518 0.98481238 89
0.18659922 0.027571188 0.97700012 89
0.17866753 0.028023966 0.97954553 89
0.17944351 0.042929236 0.9806155 89
0.1784208 0.057715103 0.98009092 89
0.19867009 0.010742553 0.97549993 91
0.21418214 0.010377004 0.9703334 91
0.2300161 0.010999699 0.96647608 91
0.18791828 0.043185145 0.97700012 91
0.19863184 0.027731577 0.97531253 91
0.19890313 0.042899877 0.97662514 91
0.18701893 0.058678992 0.97700012 91
0.1988624 0.058013912 0.97643763 91
0.21309809 0.027654868 0.97249991 91
0.2141754 0.042724553 0.97266662 91
0.22873373 0.027499866 0.96709985 91
0.22963694 0.042494554 0.96738887 91
0.21318099 0.057804056 0.97287488 91
0.22913738 0.057561219 0.96879995 91
0.25304669 0.025439201 0.95999998 91
0.25304669 0.047744498 0.95999998 91
0.24507722 0.02771233 0.96300012 91
0.24615604 0.042033285 0.96363145 91
0.25756064 0.036706198 0.963 91
0.24596784 0.058261201 0.96414268 91
0.12137376 0.30601314 0.83319998 92
0.13306582 0.30356535 0.8318001 92
0.12137376 0.30923966 0.83319998 92
0.13473119 0.31052971 0.83048564 92
0.14978401 0.30324134 0.8300333 92
0.16708252 0.30166507 0.83014119 92
0.15114212 0.31315276 0.82719994 92
0.16639993 0.31328586 0.82427692 92
0.11768304 0.29758844 0.84057242 92
0.13535058 0.2891047 0.84562218 92
0.13297027 0.29656741 0.83911425 92
0.11668146 0.31411606 0.84046662 92
0.13382606 0.31878543 0.8376857 92
0.15263146 0.2888006 0.8447333 92
0.14919537 0.28158593 0.85488129 92
0.14965059 0.29648003 0.83819997 92
0.1662907 0.28810737 0.84456658 92
0.16617435 0.27974999 0.85426348 92
0.16541944 0.29470083 0.83839989 92
0.14268799 0.31976131 0.83539999 92
0.18174852 0.3030051 0.82942224 93
0.19321772 0.30121133 0.83219999 93
0.18145141 0.31417856 0.82083982 93
0.19164935 0.31397665 0.82032502 93
0.19871129 0.33271378 0.82859993 93
0.18287088 0.28736684 0.8441143 93
0.18184298 0.2792666 0.85387599 93
0.18196745 0.2947211 0.83779997 93
0.19672225 0.28587741 0.84454286 93
0.19723547 0.27847627 0.85482848 93
0.19460292 0.29443723 0.83814996 93
0.20054057 0.31993049 0.84439999 93
0.20350048 0.31400076 0.85239995 93
0.20327806 0.32549614 0.84019995 93
0.20731513 0.28000456 0.8624 93
0.21305725 0.30367109 0.8617847 93
0.21674639 0.29635283 0.86991996 93
0.21385567 0.31189114 0.85350519 93
0.069834933 0.18762112 0.9550001 94
0.068584457 0.19621292 0.94989997 94
0.090144753 0.19333607 0.94479996 94
0.085206516 0.18656231 0.9527455 94
0.10216749 0.18610319 0.95471257 94
0.070315711 0.17172277 0.969684 94
0.07660941 0.16292094 0.98199999 94
0.064157002 0.17897035 0.96599996 94
0.08943975 0.1620914 0.977 94
0.085365333 0.1722783 0.96857125 94
0.096994266 0.1620914 0.977 94
0.10173424 0.17120092 0.96817356 94
0.11757574 0.17785873 0.95999998 94
0.11681227 0.18702964 0.95297891 94
0.13397796 0.19333607 0.94479996 94
0.13360149 0.18537621 0.95244205 94
0.1177692 0.1620914 0.97700006 94
0.11866686 0.17011738 0.96893746 94
0.022267364 0.091692328 1.0143875 95
0.035776649 0.089183681 1.0081999 95
0.038293805 0.091872409 1.0113537 95
0.037837848 0.10707024 1.0112 95
0.043572415 0.11651309 1.0081999 95
0.050652262 0.090319239 1.0112 95
0.054152381 0.10675258 1.0081998 95
0.047611553 0.10707024 1.0112 95
0.068800338 0.10659377 1.0066999 95
0.085862227 0.10603352 1.0014501 95
0.10302119 0.10575774 0.99882489 95
0.0066141672 0.12375003 1.0195751 100
0.0072911629 0.14396739 1.0037 100
0.0057954928 0.13601109 1.0139 100
0.022230081 0.12294015 1.0128875 100
0.022015417 0.14307992 1.0029498 100
0.022203961 0.13451372 1.0114499 100
0.037451632 0.12314207 1.0113332 100
0.038313381 0.14027545 1.002553 100
0.033276785 0.13382833 1.0112 100
0.053706907 0.12223925 1.0081998 100
0.047611553 0.12469143 1.0112 100
0.052974004 0.13902447 1.0017501 100
0.0064306557 0.15662865 0.99035001 100
0.00569556 0.17415847 0.97399998 100
0.0068829567 0.16614224 0.98063636 100
0.0064646555 0.14984588 0.99619997 100
0.027114984 0.1620914 0.977 100
0.021989241 0.15647015 0.98938572 100
0.021742797 0.17125797 0.97326672 100
0.017113356 0.16401874 0.98099995 100
0.0346695 0.1620914 0.977 100
0.037766803 0.15617745 0.98755723 100
0.037849966 0.17195119 0.97063631 100
0.021228695 0.14984588 0.99619991 100
0.035350826 0.14984588 0.99619991 100
0.053763088 0.15544006 0.98750484 100
0.054546826 0.17094418 0.97362506 100
0.054779019 0.16386873 0.98199999 100
0.07045646 0.15519832 0.98620999 100
0.053669184 0.17960504 0.96539992 100
0.053823661 0.060687859 1.0073428 97
0.049566291 0.054206688 1.0112 97
0.068653092 0.059677191 1.0044501 97
0.068750538 0.075356252 1.0059499 97
0.10820229 0.045549549 0.9932 97
0.10240567 0.043645699 0.99659985 97
0.085736498 0.059411138 0.99995011 97
0.085801393 0.074962422 1.0006999 97
0.10288545 0.059271902 0.9975124 97
0.10302119 0.074817471 0.99882495 97
0.056936588 0.092530139 1.0081998 97
0.068813518 0.091016069 1.0068874 97
0.085920639 0.090580754 1.0020498 97
0.10306132 0.090322241 0.99919993 97
0.11541381 0.060282521 0.99653327 97
0.11658126 0.075280353 0.99644995 97
0.11733252 0.09005104 0.99619991 97
0.068668559 0.12195976 1.004825 98
0.069007836 0.13955493 1.0029144 98
0.085751683 0.12138338 1.0001001 98
0.085984744 0.13834395 0.99907517 98
0.10288183 0.12107111 0.99751234 98
0.10282606 0.13837682 0.99694997 98
0.12185523 0.12332654 0.9932 98
0.11910251 0.13989617 0.99296927 98
0.13255164 0.12259151 0.99093676 98
0.13267241 0.13926849 0.98957503 98
0.11494827 0.12026995 0.99620003 98
0.14946003 0.1235855 0.98676002 98
0.086029015 0.15508181 0.98603332 98
0.1020706 0.15500017 0.98547775 98
0.11689697 0.15395795 0.98560005 98
-0.027006106 0.25626886 0.89318317 99
-0.027264088 0.22438669 0.92500001 99
-0.025855435 0.24860296 0.90113336 99
-0.0097386837 0.25525257 0.89266676 99
-0.0091641992 0.26306671 0.88488567 99
0.0057837847 0.25325119 0.89172494 99
0.0057390444 0.26317671 0.88443333 99
0.024855861 0.24222697 0.89559996 99
0.021581041 0.25173011 0.89143342 99
0.02033456 0.26260868 0.8842923 99
0.038515598 0.25137314 0.89119995 99
0.037250202 0.26078179 0.88459986 99
0.05465911 0.26045507 0.88293332 99
-0.0099070454 0.23855394 0.90805316 99
0.0063716918 0.23871785 0.90747267 99
0.0055493745 0.23119251 0.91856915 99
-0.0098364362 0.24731924 0.90153325 99
0.0058379602 0.24511632 0.89985001 99
0.021439657 0.23780245 0.90687495 99
0.022198964 0.23043191 0.91872847 99
0.037455354 0.23732105 0.90720004 99
0.019386943 0.24384251 0.89899999 99
0.040643424 0.24344406 0.90009999 99
0.053756807 0.23593122 0.90784544 99
0.050146203 0.2297073 0.91479999 99
0.0062115286 0.18849631 0.95741671 100
0.0056867008 0.20653456 0.94087696 100
0.0066744466 0.19789729 0.95076364 100
0.02102099 0.19036826 0.95749998 100
0.022891358 0.2062934 0.9393 100
0.020863218 0.19816583 0.95045 100
0.037599031 0.19025061 0.95550525 100
0.039100122 0.20367429 0.94016838 100
0.031767581 0.19741178 0.94679999 100
0.006260653 0.18062796 0.96487492 100
0.021174669 0.18242355 0.96450001 100
0.037925344 0.18181652 0.96374995 100
0.0072426675 0.22023742 0.92541528 100
0.0037269406 0.21522017 0.93094283 100
0.021638155 0.22096223 0.92454988 100
0.038067382 0.2208482 0.92221659 100
0.037854426 0.22954504 0.917 100
0.023068614 0.21397856 0.93202221 100
0.03848657 0.21424307 0.93229997 100
0.054202311 0.18803062 0.95510006 100
0.053236663 0.20284429 0.93809998 100
0.059609134 0.19501404 0.95299995 100
0.054385416 0.22187814 0.92089528 100
0.053853948 0.21382664 0.93135548 100
0.065347545 0.21187021 0.92979997 100
0.0056866002 0.27103081 0.87659985 100
0.02151281 0.26991194 0.87557644 100
0.038127355 0.26784676 0.87539136 100
0.054558452 0.26761889 0.87466091 100
0.0083674788 0.28569832 0.86213338 100
0.0085860584 0.29322276 0.86199999 100
0.0045698341 0.2787267 0.86885452 100
0.021742936 0.28428149 0.86110604 100
0.02187288 0.29494661 0.86019993 100
0.037610896 0.28337246 0.85976374 100
0.037845761 0.29599261 0.85576838 100
0.02074042 0.27687019 0.86829984 100
0.020730933 0.30266124 0.86799991 100
0.03624991 0.27632406 0.86789989 100
0.032472841 0.30531397 0.86790001 100
0.054038163 0.28306237 0.8583644 100
0.059556365 0.29810238 0.84739995 100
0.05254183 0.29744896 0.85268557 100
0.066264801 0.29661313 0.84939998 100
0.054192394 0.27459052 0.86639994 100
0.031780966 0.24222697 0.89559996 102
0.066406474 0.24222697 0.89560002 102
0.053995807 0.25200385 0.88912922 102
0.074231468 0.2570056 0.87893325 102
0.069097951 0.25058359 0.88943332 102
0.070190787 0.26683331 0.87299037 102
0.065489411 0.25941369 0.88326663 102
0.085450508 0.24222697 0.89559996 102
0.10103198 0.24222699 0.89559996 102
0.085624278 0.25833678 0.87959999 102
0.086514533 0.25066969 0.88872004 102
0.085916303 0.25921789 0.88259995 102
0.10258107 0.2582193 0.87919998 102
0.10228387 0.25076193 0.88788569 102
0.069925703 0.23565184 0.90860903 102
0.054290514 0.2448388 0.8997429 102
0.075314298 0.24303837 0.89859998 102
0.08550448 0.23461966 0.90822607 102
0.10180495 0.23455073 0.90505815 102
0.11315092 0.24222697 0.89559996 102
0.11850303 0.25654241 0.87845707 102
0.11712625 0.24904737 0.88759995 102
0.12221531 0.24303837 0.89859992 102
0.069531061 0.20385706 0.93984336 103
0.10829692 0.17785873 0.95999998 103
0.085735284 0.20250754 0.93655014 103
0.10110305 0.19333607 0.94479996 103
0.10165801 0.20267548 0.93592525 103
0.071210861 0.22567032 0.91280001 103
0.070174359 0.21819048 0.92234981 103
0.081798017 0.22567032 0.91280001 103
0.087094046 0.21904273 0.92217493 103
0.10229684 0.21987256 0.92032385 103
0.083321415 0.21187021 0.92979997 103
0.10129529 0.21187021 0.92979997 103
0.11709275 0.20759761 0.92679995 103
0.1260507 0.20759761 0.92679995 103
0.12119327 0.19333607 0.94479996 103
0.11786777 0.20139948 0.93674731 103
0.13423742 0.20259863 0.93620908 103
0.12061756 0.22567032 0.91280001 103
0.11771154 0.21771146 0.92076313 103
0.11742661 0.23392718 0.9050858 103
0.13388951 0.21578823 0.92127055 103
0.070776924 0.27395663 0.86440003 104
0.085322566 0.27278012 0.8628 104
0.10196164 0.27230525 0.86315 104
0.085303888 0.26603007 0.87331301 104
0.10143065 0.26567999 0.87325442 104
0.07014516 0.28309903 0.8567 104
0.070213497 0.29713753 0.84559995 104
0.075937375 0.30794692 0.84739995 104
0.089042179 0.28825784 0.84739995 104
0.086446606 0.28234357 0.85526186 104
0.085683845 0.29765972 0.8431856 104
0.10706128 0.28825784 0.84739995 104
0.10219134 0.28246745 0.85516906 104
0.10139809 0.29752982 0.84119999 104
0.086130098 0.30954686 0.8445999 104
0.10189405 0.31080711 0.84228885 104
0.11606976 0.27214676 0.86265004 104
0.13474259 0.27190551 0.86262226 104
0.11918429 0.26558974 0.87296355 104
0.13423796 0.26504081 0.87105256 104
0.11784595 0.28846201 0.84639996 104
0.11794457 0.28092459 0.85510808 104
0.13344541 0.28057906 0.8553564 104
0.11315089 0.13595806 0.99619997 105
0.14938547 0.13880548 0.98628008 105
0.16640186 0.12341563 0.98539984 105
0.16611168 0.13843881 0.98368758 105
0.18670413 0.13939112 0.97700012 105
0.1794707 0.13672636 0.98050004 105
0.13422479 0.17778461 0.95959997 105
0.15202777 0.1770411 0.95959997 105
0.15102421 0.1927263 0.94479996 105
0.14946489 0.18534994 0.95270663 105
0.15001503 0.20191921 0.9361183 105
0.16671607 0.1931826 0.94404995 105
0.16585974 0.20165196 0.93509996 105
0.13466774 0.16196698 0.97624999 105
0.13352749 0.15413171 0.98472625 105
0.13345546 0.16986534 0.96749997 105
0.14975649 0.16196698 0.97624999 105
0.15046634 0.15346254 0.9845295 105
0.14940992 0.16981903 0.96722221 105
0.16427384 0.1607473 0.97650003 105
0.16620927 0.15269312 0.98265713 105
0.18213823 0.19856456 0.93622857 105
0.18432671 0.15554959 0.97647071 105
0.17735162 0.15264508 0.98012501 105
0.18226016 0.16815443 0.96841669 105
0.16598988 0.17615962 0.95942861 106
0.16524003 0.18573724 0.95071113 106
0.1661073 0.16805375 0.96628577 106
0.18142687 0.17593887 0.95855552 106
0.19794291 0.17556697 0.95877784 106
0.18117584 0.19119979 0.94330001 106
0.18164098 0.1835932 0.9526 106
0.19837338 0.19016768 0.94271678 106
0.19701943 0.18335924 0.95176369 106
0.19759572 0.19850457 0.9347167 106
0.21332212 0.17470843 0.95500004 106
0.23071915 0.17511968 0.9563334 106
0.21475372 0.18971209 0.94007277 106
0.21324003 0.18232225 0.94940013 106
0.19835532 0.15562983 0.97558832 106
0.19762288 0.16817315 0.96684623 106
0.21316503 0.15500891 0.97029418 106
0.21442239 0.16718017 0.96607697 106
0.22999291 0.16748364 0.96450001 106
0.24262522 0.17517011 0.95550001 106
0.24323064 0.1676095 0.96522212 106
0.12260188 0.072472356 0.9932 107
0.13295539 0.074283779 0.99170005 107
0.14975598 0.07405892 0.98869991 107
0.16643433 0.073830478 0.98561239 107
0.12356186 0.089779869 0.9932 107
0.11972196 0.10708738 0.9932 107
0.13386452 0.090251818 0.99234289 107
0.13468735 0.10617163 0.99234289 107
0.11802946 0.10535337 0.99619985 107
0.12778656 0.086193316 0.99619997 107
0.12778656 0.10355311 0.99619991 107
0.14975598 0.089372493 0.98869991 107
0.14975303 0.10660004 0.98867983 107
0.16646838 0.089112334 0.98582488 107
0.16654769 0.10634561 0.98627985 107
0.18791828 0.07237123 0.97700012 109
0.17944261 0.073893324 0.98061538 109
0.1988624 0.073138729 0.97643763 109
0.2143703 0.074763499 0.97300005 109
0.22969623 0.074083999 0.96839142 109
0.18953709 0.086423784 0.977 109
0.18124862 0.089734666 0.98100019 109
0.18080206 0.10684743 0.98316669 109
0.20035742 0.089715473 0.97681266 109
0.19244842 0.093551092 0.97900003 109
0.20121226 0.10671646 0.97700018 109
0.19257776 0.10815433 0.97966671 109
0.18827802 0.1223659 0.97700006 109
0.17992102 0.12280136 0.98050004 109
0.19882457 0.12226908 0.97625011 109
0.21330462 0.10684245 0.97343743 109
0.1350804 0.24107091 0.8955999 111
0.13306566 0.25649655 0.87848878 111
0.13378423 0.24957074 0.88802087 111
0.14890604 0.24065596 0.89459997 111
0.1672454 0.23972492 0.89450908 111
0.15059891 0.27158648 0.86220008 111
0.16664749 0.27197593 0.86284447 111
0.14986321 0.25598836 0.87739992 111
0.14968213 0.24898203 0.8891263 111
0.14931981 0.26351908 0.8698777 111
0.16572964 0.25718167 0.8775999 111
0.1658337 0.24917263 0.88614541 111
0.16525444 0.26367617 0.86915988 111
0.18155159 0.23955424 0.89426666 111
0.1815107 0.27052924 0.86221826 111
0.18305811 0.25537688 0.87879992 111
0.1812387 0.24808253 0.88591564 111
0.18156047 0.26351613 0.86962348 111
0.16785441 0.20759761 0.92679995 111
0.1344945 0.22394925 0.91119987 111
0.13288786 0.23321211 0.90338266 111
0.15125078 0.22433047 0.91023999 111
0.14919068 0.21710223 0.92084545 111
0.1505626 0.23304038 0.90293342 111
0.16638342 0.2255121 0.91215992 111
0.16515456 0.21617562 0.91966367 111
0.16585335 0.23155037 0.9025411 111
0.18266279 0.20647275 0.92499989 111
0.18213385 0.22360629 0.91159987 111
0.18094628 0.21581371 0.9192211 111
0.18225017 0.23151967 0.90242338 111
0.1980692 0.23850702 0.89374286 114
0.19726911 0.27158725 0.86220008 114
0.1973678 0.25430766 0.8774665 114
0.19862641 0.24651849 0.88524288 114
0.19798543 0.26363617 0.86903989 114
0.21298622 0.23810841 0.89318329 114
0.22222129 0.23529065 0.89559996 114
0.2086314 0.26977247 0.86439997 114
0.21113108 0.25453985 0.87826663 114
0.21220902 0.24603324 0.88559997 114
0.21003671 0.26361275 0.86974281 114
0.22836079 0.27068043 0.89378172 114
0.19826627 0.22183268 0.91054291 114
0.19709855 0.21518554 0.91835552 114
0.19735903 0.23050806 0.9022665 114
0.21396643 0.22152185 0.90919983 114
0.21381558 0.2297018 0.90188557 114
0.21949151 0.26739684 0.89859998 114
0.22999065 0.25557208 0.90917492 114
0.23253961 0.24891891 0.9192999 114
0.23038396 0.26338741 0.90128744 114
0.2159647 0.28615963 0.87719995 114
0.21992612 0.27917925 0.88634992 114
0.19773574 0.20682429 0.92451417 115
0.21433465 0.20709673 0.92344272 115
0.22857931 0.20662889 0.92409992 115
0.21337081 0.19805701 0.93259996 115
0.2302319 0.18848707 0.94151431 115
0.22929767 0.18115892 0.94948578 115
0.2297333 0.1981712 0.9331333 115
0.21357843 0.21451104 0.91799992 115
0.22344573 0.22027589 0.90999991 115
0.22611415 0.21534088 0.917 115
0.2364895 0.24103618 0.92429996 115
0.23732586 0.22554582 0.9418 115
0.23385003 0.23517399 0.93229991 115
0.24438697 0.18589368 0.94418466 115
0.24682194 0.18366265 0.94679999 115
0.24858946 0.20650448 0.95712501 115
0.25999844 0.18967737 0.94479996 115
0.26297024 0.19234455 0.9489333 115
0.27095672 0.19333607 0.94479996 115
0.27153033 0.1900789 0.94679999 115
0.25073487 0.20141107 0.963 115
0.25756064 0.20265412 0.963 115
0.24652328 0.22380775 0.94217491 115
0.24603729 0.21761531 0.94966674 115
0.20108525 -0.093522392 0.95999998 118
0.21692619 -0.08824221 0.95824999 118
0.22937083 -0.0847397 0.95627272 118
0.23355776 -0.069680326 0.95853847 118
0.21102147 -0.093814641 0.963 118
0.24904013 -0.092041612 0.94479996 118
0.2456193 -0.083593689 0.95280004 118
0.26584285 -0.085455969 0.94480002 118
0.25938925 -0.082469806 0.94973338 118
0.24610738 -0.068970978 0.95468748 118
0.262124 -0.068817832 0.95254993 118
0.27095672 -0.084724225 0.94479996 118
0.27153033 -0.077570714 0.94679999 118
0.27175975 -0.068460889 0.94760001 118
0.2354514 -0.055043355 0.95888889 119
0.23040369 -0.037104208 0.96449989 119
0.24595651 -0.055528417 0.95576924 119
