# .PCD v0.7 - Point Cloud Data file format
VERSION 0.7
FIELDS x y z rgba
SIZE 4 4 4 4
TYPE F F F U
COUNT 1 1 1 1
WIDTH 1143
HEIGHT 1
VIEWPOINT 0 0 0 1 0 0 0
POINTS 1143
DATA ascii
0.22172581 0.1470383 0.95299995 31125750
0.22356805 0.1470383 0.95299995 30864378
0.22541028 0.1470383 0.95299995 30539516
0.22725251 0.1470383 0.95299995 30867198
0.22909476 0.1470383 0.95299995 31260414
0.23093699 0.1470383 0.95299995 32177918
0.23204646 0.14657544 0.94999999 33160958
0.23388289 0.14657544 0.94999999 33292030
0.23492533 0.14608172 0.94679999 33488638
0.23675558 0.14608172 0.94679999 33488638
0.23808183 0.14577311 0.94479996 33488638
0.23990822 0.14577311 0.94479996 33488638
0.24173461 0.14577311 0.94479996 16711422
0.24356097 0.14577311 0.94479996 16711422
0.24538736 0.14577311 0.94479996 16711422
0.24721375 0.14577311 0.94479996 16711422
0.24824938 0.14531025 0.9418 16711422
0.25006998 0.14531025 0.9418 16711422
0.25189057 0.14531025 0.9418 16711422
0.2537111 0.14531025 0.9418 16711422
0.2555317 0.14531025 0.9418 16711422
0.25735229 0.14531025 0.9418 16711422
0.25917289 0.14531025 0.9418 16711422
0.26099348 0.14531025 0.9418 16514814
0.26225594 0.14500166 0.93979996 16317948
0.26407266 0.14500166 0.93979996 15990011
0.26504061 0.1445388 0.9368 15661818
0.26685154 0.1445388 0.9368 15006201
0.26808885 0.14423022 0.93479997 14416377
0.26989591 0.14423022 0.93479997 14547705
0.27170298 0.14423022 0.93479997 14679033
0.27263224 0.14376734 0.93179995 14744570
0.27443352 0.14376734 0.93179995 14810105
0.27623478 0.14376734 0.93179995 14809849
0.27803603 0.14376734 0.93179995 14809849
0.27983728 0.14376734 0.93179995 14875641
0.28103405 0.14345878 0.92979997 14941177
0.28283143 0.14345878 0.92979997 15071993
0.28462878 0.14345878 0.92979997 15137529
0.28642619 0.14345878 0.92979997 15137529
0.28822356 0.14345878 0.92979997 15071993
0.29002094 0.14345878 0.92979997 15071993
0.29087681 0.14299589 0.92679995 15137529
0.2926684 0.14299589 0.92679995 15137529
0.29382455 0.14268734 0.92479998 15203065
0.29561228 0.14268734 0.92479998 15268601
0.2974 0.14268734 0.92479998 15268601
0.29918769 0.14268734 0.92479998 15334138
0.30097544 0.14268734 0.92479998 15399673
0.30276316 0.14268734 0.92479998 15334137
0.30455086 0.14268734 0.92479998 15268601
0.30534485 0.14222446 0.92179996 15268601
0.30712679 0.14222446 0.92179996 15268601
0.3089087 0.14222446 0.92179996 15268601
0.31069061 0.14222446 0.92179996 15334137
0.31247255 0.14222446 0.92179996 15334138
0.31357265 0.14191589 0.91979998 15399673
0.31535071 0.14191589 0.91979998 15465209
0.31712875 0.14191589 0.91979998 15531001
0.31821337 0.1416073 0.91779995 15530745
0.31998757 0.1416073 0.91779995 15465209
0.32071003 0.14114444 0.91479999 15399673
0.32247841 0.14114444 0.91479999 15399673
0.32424682 0.14114444 0.91479999 15334138
0.3260152 0.14114444 0.91479999 15334137
0.32778358 0.14114444 0.91479999 15268601
0.32883149 0.14083584 0.91279995 15268601
0.330596 0.14083584 0.91279995 15268601
0.33236054 0.14083584 0.91279995 15334137
0.33412507 0.14083584 0.91279995 15268601
0.33588958 0.14083584 0.91279995 15268601
0.3364704 0.14034212 0.90959996 15203065
0.33822873 0.14034212 0.90959996 15203065
0.33923954 0.14003353 0.90759999 15203065
0.340994 0.14003353 0.90759999 15203065
0.34274849 0.14003353 0.90759999 15268601
0.3437438 0.13972495 0.90559995 15334137
0.34549439 0.13972495 0.90559995 15203065
0.34724498 0.13972495 0.90559995 15071993
0.3489956 0.13972495 0.90559995 14940921
0.35074621 0.13972495 0.90559995 14875385
0.35249683 0.13972495 0.90559995 14809849
0.35307392 0.13926208 0.90259999 14744313
0.3548187 0.13926208 0.90259999 14678777
0.35656351 0.13926208 0.90259999 14613241
0.35830835 0.13926208 0.90259999 14547705
0.35925531 0.13895351 0.90059996 14482169
0.36099625 0.13895351 0.90059996 14351354
0.36273721 0.13895351 0.90059996 14285817
0.36447814 0.13895351 0.90059996 14154233
0.3654058 0.13864493 0.89859998 14088953
0.36714289 0.13864493 0.89859998 13957882
0.36887994 0.13864493 0.89859998 13827322
0.36937973 0.13818206 0.89559996 13629690
0.37111098 0.13818206 0.89559996 13432570
0.37284225 0.13818206 0.89559996 13234683
0.37457353 0.13818206 0.89559996 13037818
0.37630481 0.13818206 0.89559996 12574969
0.3771919 0.13787349 0.89359999 12183547
0.37807122 0.1375649 0.89159995 11390974
0.37979478 0.1375649 0.89159995 10536956
0.3815183 0.1375649 0.89159995 9876731
0.38324186 0.1375649 0.89159995 9155579
0.38367009 0.13710204 0.88859999 25535227
0.38538787 0.13710204 0.88859999 25141990
0.38623428 0.13679343 0.88659996 24480722
0.38794819 0.13679343 0.88659996 23889345
0.38966206 0.13679343 0.88659996 23162544
0.39137593 0.13679343 0.88659996 22441117
0.39220306 0.13648488 0.88459998 21910154
0.39168659 0.13571343 0.87959999 21318242
0.39338696 0.13571343 0.87959999 20851258
0.39643478 0.13617629 0.88259995 20325434
0.064236991 0.1556325 0.99619997 20521793
0.06656123 0.15656987 1.0022 20062769
0.068498574 0.15656987 1.0022 19600161
0.070435919 0.15656987 1.0022 19211048
0.072156616 0.15610117 0.99919999 2696496
0.074088156 0.15610117 0.99919999 2957355
0.076019704 0.15610117 0.99919999 2825767
0.077951245 0.15610117 0.99919999 2695204
0.079882793 0.15610117 0.99919999 2695458
0.081568696 0.1556325 0.99619997 2695459
0.083745874 0.15610117 0.99919999 2630180
0.085420184 0.1556325 0.99619997 2630181
0.087345921 0.1556325 0.99619997 2827046
0.089271672 0.1556325 0.99619997 3023658
0.090922788 0.15516381 0.9932 2893102
0.092842728 0.15516381 0.9932 2827049
0.094762668 0.15516381 0.9932 2827045
0.096390583 0.15469514 0.99019998 2826784
0.098304726 0.15469514 0.99019998 2761242
0.10021888 0.15469514 0.99019998 2757915
0.10213302 0.15469514 0.99019998 18746652
0.10383701 0.15438268 0.98819995 17961260
0.10574729 0.15438268 0.98819995 18023740
0.10765757 0.15438268 0.98819995 18093889
0.12976167 0.15341409 0.98199999 20851255
0.13165995 0.15341409 0.98199999 20454704
0.13315022 0.15294541 0.97899997 20063019
0.13504273 0.15294541 0.97899997 19865895
0.13665548 0.15263295 0.977 19736365
0.13854411 0.15263295 0.977 19802419
0.14043273 0.15263295 0.977 3090737
0.14232138 0.15263295 0.977 3090736
0.14421 0.15263295 0.977 3090479
0.14609861 0.15263295 0.977 3024942
0.14798726 0.15263295 0.977 3024944
0.14941566 0.15216427 0.97399998 3024946
0.15129851 0.15216427 0.97399998 3090482
0.15318133 0.15216427 0.97399998 3090482
0.15506417 0.15216427 0.97399998 3156530
0.15694699 0.15216427 0.97399998 3156787
0.15882982 0.15216427 0.97399998 3222324
0.16071264 0.15216427 0.97399998 3288117
0.16259548 0.15216427 0.97399998 3353397
0.1644783 0.15216427 0.97399998 3287862
0.16584873 0.15169559 0.97099996 3222067
0.16772576 0.15169559 0.97099996 2960689
0.1696028 0.15169559 0.97099996 2698546
0.17095003 0.15122691 0.96799999 2960692
0.17282125 0.15122691 0.96799999 3287600
0.17469248 0.15122691 0.96799999 3353132
0.17619891 0.15091448 0.96599996 3484199
0.17806627 0.15091448 0.96599996 3353890
0.17993365 0.15091448 0.96599996 3284779
0.18180101 0.15091448 0.96599996 2300980
0.18366838 0.15091448 0.96599996 18157900
0.18495955 0.15044579 0.963 17498980
0.1868211 0.15044579 0.963 16909425
0.18868268 0.15044579 0.963 16843133
0.19054425 0.15044579 0.963 16843907
0.1924058 0.15044579 0.963 16975241
0.19426738 0.15044579 0.963 17189278
0.19551794 0.14997712 0.95999998 20737203
0.19799051 0.15044579 0.963 24285132
0.19922948 0.14997712 0.95999998 26263269
0.20108524 0.14997712 0.95999998 28234225
0.202941 0.14997712 0.95999998 30146302
0.20479678 0.14997712 0.95999998 32046846
0.20665254 0.14997712 0.95999998 32636670
0.20807391 0.14966467 0.958 33292029
0.20926844 0.14919597 0.95499998 33357564
0.21111454 0.14919597 0.95499998 33488635
0.21296065 0.14919597 0.95499998 33423098
0.21480674 0.14919597 0.95499998 33357561
0.21665284 0.14919597 0.95499998 32505593
0.21849895 0.14919597 0.95499998 31715320
0.22034505 0.14919597 0.95499998 30336760
0.22172581 0.14888352 0.95299995 28962040
0.22356805 0.14888352 0.95299995 28299000
0.22541028 0.14888352 0.95299995 27649016
0.22725251 0.14888352 0.95299995 28301817
0.22909476 0.14888352 0.95299995 29027577
0.23021001 0.14841485 0.94999999 30931961
0.23204646 0.14841485 0.94999999 32832505
0.23388289 0.14841485 0.94999999 33160954
0.23492533 0.14791493 0.94679999 33488636
0.23675558 0.14791493 0.94679999 33488638
0.23808183 0.14760247 0.94479996 33488638
0.23990822 0.14760247 0.94479996 33488638
0.24173461 0.14760247 0.94479996 33488638
0.24356097 0.14760247 0.94479996 33488638
0.24538736 0.14760247 0.94479996 16711422
0.24721375 0.14760247 0.94479996 16711422
0.24824938 0.1471338 0.9418 16711422
0.25006998 0.1471338 0.9418 16711422
0.25189057 0.1471338 0.9418 16711422
0.2537111 0.1471338 0.9418 16711422
0.2555317 0.1471338 0.9418 16711422
0.25735229 0.1471338 0.9418 16711422
0.25917289 0.1471338 0.9418 16711421
0.26099348 0.1471338 0.9418 16318205
0.26225594 0.14682133 0.93979996 15990012
0.26407266 0.14682133 0.93979996 15727866
0.26504061 0.14635266 0.9368 15465209
0.26685154 0.14635266 0.9368 14875128
0.26808885 0.14604022 0.93479997 14350840
0.26989591 0.14604022 0.93479997 14416632
0.27170298 0.14604022 0.93479997 14482168
0.27263224 0.14557151 0.93179995 14482169
0.27443352 0.14557151 0.93179995 14547704
0.27623478 0.14557151 0.93179995 14547704
0.27803603 0.14557151 0.93179995 14547704
0.27983728 0.14557151 0.93179995 14613497
0.28103405 0.14525907 0.92979997 14744569
0.28343979 0.14557151 0.93179995 14810105
0.28462878 0.14525907 0.92979997 14941177
0.28642619 0.14525907 0.92979997 14875641
0.28822356 0.14525907 0.92979997 14875385
0.29002094 0.14525907 0.92979997 14941177
0.29087681 0.1447904 0.92679995 15006713
0.2926684 0.1447904 0.92679995 15006713
0.29382455 0.14447795 0.92479998 15071993
0.29561228 0.14447795 0.92479998 15137529
0.2974 0.14447795 0.92479998 15203065
0.29918769 0.14447795 0.92479998 15268857
0.30097544 0.14447795 0.92479998 15399673
0.30276316 0.14447795 0.92479998 15268857
0.30455086 0.14447795 0.92479998 15203064
0.30534485 0.14400928 0.92179996 15203064
0.30712679 0.14400928 0.92179996 15203064
0.3089087 0.14400928 0.92179996 15137528
0.31069061 0.14400928 0.92179996 15071992
0.31179458 0.14369683 0.91979998 15137529
0.31357265 0.14369683 0.91979998 15203065
0.31535071 0.14369683 0.91979998 15268601
0.31643918 0.14338437 0.91779995 15334137
0.31821337 0.14338437 0.91779995 15334137
0.31894165 0.14291568 0.91479999 15334137
0.32071003 0.14291568 0.91479999 15268601
0.32247841 0.14291568 0.91479999 15203065
0.32424682 0.14291568 0.91479999 15203065
0.3260152 0.14291568 0.91479999 15203065
0.32706696 0.14260323 0.91279995 15137785
0.32883149 0.14260323 0.91279995 15137529
0.330596 0.14260323 0.91279995 15203065
0.33236054 0.14260323 0.91279995 15268601
0.33412507 0.14260323 0.91279995 15203321
0.33588958 0.14260323 0.91279995 15137528
0.3364704 0.1421033 0.90959996 15071992
0.33822873 0.1421033 0.90959996 15071992
0.33923954 0.14179085 0.90759999 15072249
0.340994 0.14179085 0.90759999 15071992
0.34274849 0.14179085 0.90759999 15071992
0.3437438 0.1414784 0.90559995 15071992
0.34549439 0.1414784 0.90559995 15006713
0.34724498 0.1414784 0.90559995 14940920
0.3489956 0.1414784 0.90559995 14875384
0.35074621 0.1414784 0.90559995 14875384
0.35249683 0.1414784 0.90559995 14744825
0.35307392 0.14100973 0.90259999 14678777
0.3548187 0.14100973 0.90259999 14613241
0.35656351 0.14100973 0.90259999 14547705
0.35830835 0.14100973 0.90259999 14481913
0.35925531 0.14069727 0.90059996 14416633
0.36099625 0.14069727 0.90059996 14351354
0.36273721 0.14069727 0.90059996 14285561
0.36447814 0.14069727 0.90059996 14154233
0.3654058 0.14038482 0.89859998 14088953
0.36714289 0.14038482 0.89859998 13892601
0.36764845 0.13991614 0.89559996 13760761
0.36937973 0.13991614 0.89559996 13497849
0.37111098 0.13991614 0.89559996 13301497
0.37200966 0.13960369 0.89359999 13168890
0.37457353 0.13991614 0.89559996 13102073
0.37546447 0.13960369 0.89359999 12508665
0.3771919 0.13960369 0.89359999 11983611
0.3789193 0.13960369 0.89359999 11127550
0.38064671 0.13960369 0.89359999 10338813
0.062311243 0.15756136 0.99619997 21769517
0.064236991 0.15756136 0.99619997 21178924
0.066162735 0.15756136 0.99619997 20652590
0.068293527 0.15803584 0.99919999 3416625
0.070225067 0.15803584 0.99919999 2958127
0.072156616 0.15803584 0.99919999 2892589
0.074088156 0.15803584 0.99919999 2892589
0.076019704 0.15803584 0.99919999 2827053
0.077951245 0.15803584 0.99919999 2762281
0.079882793 0.15803584 0.99919999 2762278
0.081568696 0.15756136 0.99619997 2828580
0.08349444 0.15756136 0.99619997 2828323
0.085420184 0.15756136 0.99619997 2828323
0.087082893 0.15708688 0.9932 3089700
0.089002833 0.15708688 0.9932 3416872
0.090922788 0.15708688 0.9932 3155500
0.092842728 0.15708688 0.9932 2959913
0.094762668 0.15708688 0.9932 2959143
0.096390583 0.1566124 0.99019998 2893607
0.098304726 0.1566124 0.99019998 2892327
0.10021888 0.1566124 0.99019998 2891558
0.10213302 0.1566124 0.99019998 2365734
0.10383701 0.15629606 0.98819995 1905940
0.10574729 0.15629606 0.98819995 18549762
0.10787546 0.1566124 0.99019998 18481934
0.12976167 0.15531544 0.98199999 21905469
0.13125774 0.15484096 0.97899997 21443891
0.13315022 0.15484096 0.97899997 20982833
0.13504273 0.15484096 0.97899997 20458287
0.13665548 0.15452465 0.977 19999280
0.13854411 0.15452465 0.977 19867954
0.14043273 0.15452465 0.977 3023921
0.14232138 0.15452465 0.977 3024944
0.14421 0.15452465 0.977 3025449
0.14609861 0.15452465 0.977 3024930
0.14753284 0.15405016 0.97399998 2959145
0.14941566 0.15405016 0.97399998 3155760
0.15129851 0.15405016 0.97399998 3287346
0.15318133 0.15405016 0.97399998 3221813
0.15506417 0.15405016 0.97399998 3156275
0.15694699 0.15405016 0.97399998 3156786
0.1583406 0.15357567 0.97099996 3222834
0.16021763 0.15357567 0.97099996 3288115
0.16209467 0.15357567 0.97099996 3418676
0.16397169 0.15357567 0.97099996 3287606
0.16584873 0.15357567 0.97099996 3222070
0.16720757 0.15310119 0.96799999 3091254
0.16907878 0.15310119 0.96799999 2960439
0.17095003 0.15310119 0.96799999 3091512
0.17282125 0.15310119 0.96799999 3288119
0.17433155 0.15278485 0.96599996 3287607
0.17619891 0.15278485 0.96599996 3353145
0.17806627 0.15278485 0.96599996 3287611
0.17993365 0.15278485 0.96599996 3287357
0.18180101 0.15278485 0.96599996 2762560
0.18309799 0.15231037 0.963 2303795
0.18495955 0.15231037 0.963 1908007
0.1868211 0.15231037 0.963 1512732
0.18868268 0.15231037 0.963 18419474
0.18995064 0.15183589 0.95999998 18546963
0.19180642 0.15183589 0.95999998 18284821
0.19426738 0.15231037 0.963 18022718
0.19551794 0.15183589 0.95999998 19465064
0.19737372 0.15183589 0.95999998 20841370
0.19922948 0.15183589 0.95999998 21710797
0.20108524 0.15183589 0.95999998 22507493
0.202941 0.15183589 0.95999998 23499006
0.20479678 0.15183589 0.95999998 24493054
0.20622201 0.15151957 0.958 26332926
0.20807391 0.15151957 0.958 28180222
0.20926844 0.15104507 0.95499998 29228798
0.21111454 0.15104507 0.95499998 30277374
0.21296065 0.15104507 0.95499998 31260414
0.21480674 0.15104507 0.95499998 32243454
0.21665284 0.15104507 0.95499998 32308990
0.21849895 0.15104507 0.95499998 32440062
0.21988358 0.15072873 0.95299995 31784702
0.22172581 0.15072873 0.95299995 31194874
0.22356805 0.15072873 0.95299995 30864375
0.22541028 0.15072873 0.95299995 30535925
0.22725251 0.15072873 0.95299995 30664948
0.22909476 0.15072873 0.95299995 30793716
0.23093699 0.15072873 0.95299995 31059444
0.23204646 0.15025425 0.94999999 31320309
0.23388289 0.15025425 0.94999999 30994422
0.23571932 0.15025425 0.94999999 30670586
0.23675558 0.14974815 0.94679999 30932734
0.23858583 0.14974815 0.94679999 31194878
0.23990822 0.14943181 0.94479996 31784702
0.24173461 0.14943181 0.94479996 32374526
0.24356097 0.14943181 0.94479996 32898814
0.24538736 0.14943181 0.94479996 33488638
0.24721375 0.14943181 0.94479996 33488638
0.24824938 0.14895733 0.9418 33488638
0.25006998 0.14895733 0.9418 33488638
0.25189057 0.14895733 0.9418 33488638
0.2537111 0.14895733 0.9418 16711422
0.2555317 0.14895733 0.9418 16711422
0.25735229 0.14895733 0.9418 16645886
0.25917289 0.14895733 0.9418 16645885
0.26099348 0.14895733 0.9418 16252157
0.26225594 0.14864099 0.93979996 15858427
0.26407266 0.14864099 0.93979996 15334394
0.26504061 0.14816652 0.9368 14744825
0.26685154 0.14816652 0.9368 14481912
0.26808885 0.1478502 0.93479997 14219512
0.26989591 0.1478502 0.93479997 14285304
0.27170298 0.1478502 0.93479997 14351096
0.27263224 0.14737569 0.93179995 14285560
0.27443352 0.14737569 0.93179995 14285560
0.27623478 0.14737569 0.93179995 14285560
0.27803603 0.14737569 0.93179995 14351096
0.27983728 0.14737569 0.93179995 14416633
0.2816385 0.14737569 0.93179995 14482169
0.28343979 0.14737569 0.93179995 14547705
0.28462878 0.14705938 0.92979997 14613497
0.28642619 0.14705938 0.92979997 14678777
0.28822356 0.14705938 0.92979997 14678777
0.29002094 0.14705938 0.92979997 14744570
0.29087681 0.1465849 0.92679995 14810105
0.2920368 0.14626856 0.92479998 14875641
0.29382455 0.14626856 0.92479998 14875641
0.29561228 0.14626856 0.92479998 14940921
0.2974 0.14626856 0.92479998 14940920
0.29918769 0.14626856 0.92479998 15006456
0.30097544 0.14626856 0.92479998 15006456
0.30276316 0.14626856 0.92479998 15006457
0.30455086 0.14626856 0.92479998 15006456
0.30534485 0.14579408 0.92179996 15203064
0.30712679 0.14579408 0.92179996 15334136
0.3089087 0.14579408 0.92179996 15203064
0.31001654 0.14547776 0.91979998 15071992
0.31179458 0.14547776 0.91979998 15071992
0.31357265 0.14547776 0.91979998 15071992
0.31466499 0.14516144 0.91779995 15137529
0.31643918 0.14516144 0.91779995 15203065
0.31717324 0.14468695 0.91479999 15203065
0.31894165 0.14468695 0.91479999 15137529
0.32071003 0.14468695 0.91479999 15071993
0.32247841 0.14468695 0.91479999 15006457
0.32424682 0.14468695 0.91479999 15006457
0.3260152 0.14468695 0.91479999 15006457
0.32778358 0.14468695 0.91479999 15006457
0.32883149 0.14437062 0.91279995 15006457
0.330596 0.14437062 0.91279995 15006457
0.33236054 0.14437062 0.91279995 15071993
0.33412507 0.14437062 0.91279995 15006457
0.33588958 0.14437062 0.91279995 15006456
0.33765408 0.14437062 0.91279995 14940920
0.33822873 0.1438645 0.90959996 14940920
0.33998707 0.1438645 0.90959996 14940921
0.340994 0.14354818 0.90759999 14875384
0.34274849 0.14354818 0.90759999 14875384
0.3437438 0.14323184 0.90559995 14875384
0.34549439 0.14323184 0.90559995 14810105
0.34724498 0.14323184 0.90559995 14810104
0.3489956 0.14323184 0.90559995 14809848
0.35074621 0.14323184 0.90559995 14809848
0.35132912 0.14275737 0.90259999 14679033
0.35307392 0.14275737 0.90259999 14547961
0.3548187 0.14275737 0.90259999 14482169
0.35656351 0.14275737 0.90259999 14482169
0.35830835 0.14275737 0.90259999 14416633
0.35925531 0.14244103 0.90059996 14351353
0.36099625 0.14244103 0.90059996 14285818
0.36273721 0.14244103 0.90059996 14285561
0.36447814 0.14244103 0.90059996 14088697
0.3654058 0.14212471 0.89859998 13957880
0.36714289 0.14212471 0.89859998 13826040
0.36764845 0.14165021 0.89559996 13629176
0.36937973 0.14165021 0.89559996 13498105
0.37111098 0.14165021 0.89559996 13301497
0.37200966 0.14133391 0.89359999 13168377
0.37373707 0.14133391 0.89359999 13036281
0.37546447 0.14133391 0.89359999 12377338
0.3771919 0.14133391 0.89359999 11786492
0.3789193 0.14133391 0.89359999 10995966
0.38064671 0.14133391 0.89359999 10207229
0.062311243 0.15949023 0.99619997 22626106
0.064236991 0.15949023 0.99619997 21904692
0.066162735 0.15949023 0.99619997 21247029
0.068088479 0.15949023 0.99619997 3943478
0.070014223 0.15949023 0.99619997 3482162
0.071939975 0.15949023 0.99619997 3154477
0.073865712 0.15949023 0.99619997 2827054
0.075791456 0.15949023 0.99619997 2827567
0.0777172 0.15949023 0.99619997 2893356
0.079642944 0.15949023 0.99619997 2894122
0.081568696 0.15949023 0.99619997 2959400
0.08349444 0.15949023 0.99619997 2959398
0.085162945 0.15900993 0.9932 3024935
0.087082893 0.15900993 0.9932 3418409
0.089002833 0.15900993 0.9932 3810862
0.090648144 0.15852964 0.99019998 3483443
0.092562288 0.15852964 0.99019998 3156528
0.094762668 0.15900993 0.9932 3090988
0.096390583 0.15852964 0.99019998 3024939
0.098304726 0.15852964 0.99019998 3023402
0.10021888 0.15852964 0.99019998 3023401
0.10213302 0.15852964 0.99019998 2826792
0.10383701 0.15820943 0.98819995 2628126
0.10574729 0.15820943 0.98819995 2364693
0.10765757 0.15820943 0.98819995 2101018
0.12936524 0.15673652 0.97899997 22955588
0.13125774 0.15673652 0.97899997 22432069
0.13315022 0.15673652 0.97899997 21903930
0.13476685 0.15641634 0.977 21116464
0.13665548 0.15641634 0.977 20328500
0.13854411 0.15641634 0.977 20000057
0.14043273 0.15641634 0.977 2959413
0.14232138 0.15641634 0.977 2959410
0.14421 0.15641634 0.977 3024941
0.14609861 0.15641634 0.977 2959401
0.14753284 0.15593603 0.97399998 2959148
0.14941566 0.15593603 0.97399998 3221040
0.15129851 0.15593603 0.97399998 3548721
0.15318133 0.15593603 0.97399998 3351859
0.15506417 0.15593603 0.97399998 3221811
0.15646356 0.15545574 0.97099996 3222324
0.1583406 0.15545574 0.97099996 3222327
0.16021763 0.15545574 0.97099996 3353658
0.16209467 0.15545574 0.97099996 3484215
0.16397169 0.15545574 0.97099996 3353140
0.16584873 0.15545574 0.97099996 3222068
0.16720757 0.15497546 0.96799999 3222068
0.16907878 0.15497546 0.96799999 3222581
0.17095003 0.15497546 0.96799999 3222838
0.17246419 0.15465525 0.96599996 3287862
0.17433155 0.15465525 0.96599996 3222071
0.17619891 0.15465525 0.96599996 3222073
0.17806627 0.15465525 0.96599996 3287611
0.17993365 0.15465525 0.96599996 3353148
0.1812364 0.15417497 0.963 3287870
0.18309799 0.15417497 0.963 3222583
0.18495955 0.15417497 0.963 3093040
0.1868211 0.15417497 0.963 2961451
0.18868268 0.15417497 0.963 3223590
0.18995064 0.15369466 0.95999998 3483431
0.1924058 0.15417497 0.963 2827815
0.19366218 0.15369466 0.95999998 2168633
0.19551794 0.15369466 0.95999998 18222155
0.19737372 0.15369466 0.95999998 17500514
0.19881442 0.15337446 0.958 17170809
0.20066632 0.15337446 0.958 16843135
0.20251822 0.15337446 0.958 16843142
0.20437011 0.15337446 0.958 16924057
0.20622201 0.15337446 0.958 20011693
0.20807391 0.15337446 0.958 23101891
0.20926844 0.15289417 0.95499998 25078490
0.21111454 0.15289417 0.95499998 27051499
0.21296065 0.15289417 0.95499998 29096956
0.21480674 0.15289417 0.95499998 31128573
0.21665284 0.15289417 0.95499998 32112382
0.21849895 0.15289417 0.95499998 33160958
0.21988358 0.15257396 0.95299995 33292030
0.22172581 0.15257396 0.95299995 33488636
0.22356805 0.15257396 0.95299995 33488634
0.22541028 0.15257396 0.95299995 33488633
0.22725251 0.15257396 0.95299995 33029881
0.22837359 0.15209368 0.94999999 32568825
0.23021001 0.15209368 0.94999999 31192057
0.23204646 0.15209368 0.94999999 29814008
0.23388289 0.15209368 0.94999999 28825080
0.23492533 0.15158136 0.94679999 27914232
0.23675558 0.15158136 0.94679999 28428537
0.23808183 0.15126115 0.94479996 28961017
0.23990822 0.15126115 0.94479996 30143737
0.24173461 0.15126115 0.94479996 31323896
0.24356097 0.15126115 0.94479996 32374520
0.24538736 0.15126115 0.94479996 33488635
0.24721375 0.15126115 0.94479996 33488638
0.24824938 0.15078087 0.9418 33488638
0.25006998 0.15078087 0.9418 33488638
0.25189057 0.15078087 0.9418 33488638
0.2537111 0.15078087 0.9418 33488638
0.2555317 0.15078087 0.9418 33488638
0.25735229 0.15078087 0.9418 16645886
0.25917289 0.15078087 0.9418 16580093
0.26099348 0.15078087 0.9418 16186620
0.26225594 0.15046066 0.93979996 15793147
0.26407266 0.15046066 0.93979996 14940922
0.26504061 0.14998038 0.9368 30866169
0.26685154 0.14998038 0.9368 30866168
0.26808885 0.14966017 0.93479997 30865656
0.26989591 0.14966017 0.93479997 30931448
0.27170298 0.14966017 0.93479997 14219768
0.27351001 0.14966017 0.93479997 14154744
0.27443352 0.14917988 0.93179995 14088952
0.27623478 0.14917988 0.93179995 14088953
0.27803603 0.14917988 0.93179995 14154489
0.27983728 0.14917988 0.93179995 14154745
0.2816385 0.14917988 0.93179995 14220025
0.28343979 0.14917988 0.93179995 14285561
0.28524104 0.14917988 0.93179995 14351097
0.28704229 0.14917988 0.93179995 14416633
0.28822356 0.14885968 0.92979997 14547705
0.29002094 0.14885968 0.92979997 14613497
0.29087681 0.14837939 0.92679995 14678777
0.2926684 0.14837939 0.92679995 14678777
0.29382455 0.14805919 0.92479998 14744313
0.29561228 0.14805919 0.92479998 14744825
0.2974 0.14805919 0.92479998 14744313
0.29918769 0.14805919 0.92479998 14679032
0.30097544 0.14805919 0.92479998 14678776
0.30276316 0.14805919 0.92479998 14744313
0.30455086 0.14805919 0.92479998 14875384
0.30534485 0.14757888 0.92179996 15203320
0.30712679 0.14757888 0.92179996 15530744
0.3089087 0.14757888 0.92179996 15269112
0.31001654 0.1472587 0.91979998 15072248
0.31179458 0.1472587 0.91979998 15006712
0.31357265 0.1472587 0.91979998 15006712
0.31466499 0.1469385 0.91779995 15072248
0.31643918 0.1469385 0.91779995 15137528
0.31821337 0.1469385 0.91779995 15071993
0.31894165 0.14645821 0.91479999 15006457
0.32071003 0.14645821 0.91479999 14941177
0.32247841 0.14645821 0.91479999 14875385
0.32424682 0.14645821 0.91479999 14875385
0.3260152 0.14645821 0.91479999 14875385
0.32778358 0.14645821 0.91479999 14875641
0.32883149 0.14613801 0.91279995 14940920
0.330596 0.14613801 0.91279995 14875384
0.33236054 0.14613801 0.91279995 14875384
0.33412507 0.14613801 0.91279995 14875897
0.33588958 0.14613801 0.91279995 14875384
0.33765408 0.14613801 0.91279995 14874872
0.33822873 0.1456257 0.90959996 14875384
0.33998707 0.1456257 0.90959996 14810105
0.340994 0.14530548 0.90759999 14744312
0.34274849 0.14530548 0.90759999 14744056
0.34450296 0.14530548 0.90759999 14744313
0.34549439 0.14498529 0.90559995 14679033
0.34724498 0.14498529 0.90559995 14678777
0.3489956 0.14498529 0.90559995 14678776
0.35074621 0.14498529 0.90559995 14744312
0.35249683 0.14498529 0.90559995 14613496
0.35307392 0.14450499 0.90259999 14482424
0.3548187 0.14450499 0.90259999 14416888
0.35656351 0.14450499 0.90259999 14416632
0.35830835 0.14450499 0.90259999 14351609
0.36005315 0.14450499 0.90259999 14285817
0.36179796 0.14450499 0.90259999 14285817
0.36273721 0.1441848 0.90059996 14285561
0.36447814 0.1441848 0.90059996 14088696
0.3654058 0.1438646 0.89859998 13891576
0.36714289 0.1438646 0.89859998 13694200
0.36764845 0.14338431 0.89559996 13563384
0.36937973 0.14338431 0.89559996 13432825
0.37111098 0.14338431 0.89559996 13366521
0.37284225 0.14338431 0.89559996 13167353
0.37457353 0.14338431 0.89559996 13036282
0.37546447 0.14306411 0.89359999 12311548
0.3771919 0.14306411 0.89359999 11588861
0.3789193 0.14306411 0.89359999 10864638
0.38064671 0.14306411 0.89359999 10140413
0.062498894 0.1619052 0.99919999 23352392
0.064236991 0.16141909 0.99619997 22170172
0.066162735 0.16141909 0.99619997 21055292
0.068088479 0.16141909 0.99619997 20654396
0.070014223 0.16141909 0.99619997 20259381
0.071939975 0.16141909 0.99619997 3154478
0.073643275 0.160933 0.9932 2892591
0.075791456 0.16141909 0.99619997 2892849
0.0777172 0.16141909 0.99619997 2893359
0.079642944 0.16141909 0.99619997 3024686
0.08132305 0.160933 0.9932 3221547
0.083243005 0.160933 0.9932 3090473
0.085162945 0.160933 0.9932 3024683
0.08681985 0.16044688 0.99019998 3221806
0.089002833 0.160933 0.9932 3417396
0.090648144 0.16044688 0.99019998 3287099
0.092562288 0.16044688 0.99019998 3157046
0.094476432 0.16044688 0.99019998 3222322
0.096390583 0.16044688 0.99019998 3353903
0.098304726 0.16044688 0.99019998 3222061
0.10021888 0.16044688 0.99019998 3090987
0.10213302 0.16044688 0.99019998 3024426
0.10383701 0.16012281 0.98819995 2957097
0.10574729 0.16012281 0.98819995 2693929
0.10765757 0.16012281 0.98819995 2431270
0.12936524 0.1586321 0.97899997 20069962
0.13125774 0.1586321 0.97899997 20266583
0.13315022 0.1586321 0.97899997 20463428
0.13476685 0.15830801 0.977 20067378
0.13665548 0.15830801 0.977 19739705
0.13854411 0.15830801 0.977 19606336
0.14043273 0.15830801 0.977 19540282
0.14232138 0.15830801 0.977 19605557
0.14421 0.15830801 0.977 2959666
0.14609861 0.15830801 0.977 2959408
0.14753284 0.15782192 0.97399998 2959408
0.14941566 0.15782192 0.97399998 3155760
0.15129851 0.15782192 0.97399998 3286576
0.15318133 0.15782192 0.97399998 3221297
0.15506417 0.15782192 0.97399998 3156531
0.15646356 0.15733582 0.97099996 2959926
0.1583406 0.15733582 0.97099996 2763324
0.16021763 0.15733582 0.97099996 2959682
0.16209467 0.15733582 0.97099996 3221562
0.16397169 0.15733582 0.97099996 3222066
0.16584873 0.15733582 0.97099996 3222322
0.16720757 0.15684971 0.96799999 3156530
0.16907878 0.15684971 0.96799999 3092019
0.17095003 0.15684971 0.96799999 3091509
0.17246419 0.15652564 0.96599996 3090998
0.17433155 0.15652564 0.96599996 3156535
0.17619891 0.15652564 0.96599996 3222073
0.17806627 0.15652564 0.96599996 3222075
0.17993365 0.15652564 0.96599996 3288124
0.1812364 0.15603954 0.963 3222589
0.18309799 0.15603954 0.963 3157307
0.18495955 0.15603954 0.963 3157561
0.1868211 0.15603954 0.963 3092538
0.18868268 0.15603954 0.963 3288891
0.18995064 0.15555343 0.95999998 3419706
0.1924058 0.15603954 0.963 3091258
0.19366218 0.15555343 0.95999998 2763572
0.19551794 0.15555343 0.95999998 2367791
0.19737372 0.15555343 0.95999998 1973290
0.19881442 0.15522937 0.958 18616614
0.20066632 0.15522937 0.958 18481690
0.20251822 0.15522937 0.958 18219278
0.20437011 0.15522937 0.958 18022709
0.20557624 0.15474327 0.95499998 19136861
0.20742233 0.15474327 0.95499998 20316553
0.20926844 0.15474327 0.95499998 21117878
0.21111454 0.15474327 0.95499998 21911256
0.21296065 0.15474327 0.95499998 22970618
0.21480674 0.15474327 0.95499998 23965180
0.21665284 0.15474327 0.95499998 25740542
0.21804135 0.15441918 0.95299995 27524606
0.21988358 0.15441918 0.95299995 28704254
0.22172581 0.15441918 0.95299995 29884158
0.22356805 0.15441918 0.95299995 30867198
0.22541028 0.15441918 0.95299995 31915774
0.22725251 0.15441918 0.95299995 32308990
0.22837359 0.15393308 0.94999999 32702206
0.23021001 0.15393308 0.94999999 32177662
0.23204646 0.15393308 0.94999999 31653372
0.23388289 0.15393308 0.94999999 31128058
0.23492533 0.15341458 0.94679999 30669303
0.23675558 0.15341458 0.94679999 30861813
0.23858583 0.15341458 0.94679999 31121908
0.23990822 0.15309051 0.94479996 31058676
0.24173461 0.15309051 0.94479996 30988531
0.24356097 0.15309051 0.94479996 31058931
0.24538736 0.15309051 0.94479996 31063800
0.24721375 0.15309051 0.94479996 30932734
0.24824938 0.1526044 0.9418 30801662
0.25006998 0.1526044 0.9418 31391486
0.25189057 0.1526044 0.9418 31915774
0.2537111 0.1526044 0.9418 32440062
0.2555317 0.1526044 0.9418 32964350
0.25735229 0.1526044 0.9418 32964350
0.25862247 0.15228032 0.93979996 33029373
0.26043922 0.15228032 0.93979996 32832764
0.26225594 0.15228032 0.93979996 32570619
0.2632297 0.15179422 0.9368 31718394
0.26504061 0.15179422 0.9368 30800633
0.26685154 0.15179422 0.9368 30669049
0.26808885 0.15147015 0.93479997 30537976
0.26989591 0.15147015 0.93479997 30668536
0.27170298 0.15147015 0.93479997 30799352
0.27351001 0.15147015 0.93479997 30734584
0.27443352 0.15098405 0.93179995 13958137
0.27623478 0.15098405 0.93179995 13957882
0.27803603 0.15098405 0.93179995 13957881
0.27983728 0.15098405 0.93179995 13957881
0.2816385 0.15098405 0.93179995 13957881
0.28343979 0.15098405 0.93179995 14023417
0.28524104 0.15098405 0.93179995 14088953
0.28704229 0.15098405 0.93179995 14220026
0.28884354 0.15098405 0.93179995 14285561
0.29002094 0.15065998 0.92979997 14351097
0.29181835 0.15065998 0.92979997 14416633
0.2926684 0.15017387 0.92679995 14482169
0.29382455 0.1498498 0.92479998 14482169
0.29561228 0.1498498 0.92479998 14547706
0.2974 0.1498498 0.92479998 14613241
0.29918769 0.1498498 0.92479998 14547705
0.30097544 0.1498498 0.92479998 14547705
0.30276316 0.1498498 0.92479998 14613241
0.30455086 0.1498498 0.92479998 14679033
0.30534485 0.1493637 0.92179996 14744313
0.30712679 0.1493637 0.92179996 14875385
0.3089087 0.1493637 0.92179996 14875385
0.31001654 0.14903964 0.91979998 14875641
0.31179458 0.14903964 0.91979998 14810105
0.3128908 0.14871557 0.91779995 14809592
0.31466499 0.14871557 0.91779995 14875384
0.31643918 0.14871557 0.91779995 14875384
0.31717324 0.14822945 0.91479999 14875385
0.31894165 0.14822945 0.91479999 14809849
0.32071003 0.14822945 0.91479999 14809849
0.32247841 0.14822945 0.91479999 14744569
0.32424682 0.14822945 0.91479999 14744570
0.3260152 0.14822945 0.91479999 14744569
0.32778358 0.14822945 0.91479999 14744313
0.32883149 0.14790538 0.91279995 14744312
0.330596 0.14790538 0.91279995 14744312
0.33236054 0.14790538 0.91279995 14744312
0.33412507 0.14790538 0.91279995 14744313
0.33588958 0.14790538 0.91279995 14744568
0.33765408 0.14790538 0.91279995 14744312
0.33822873 0.14738688 0.90959996 14744312
0.33998707 0.14738688 0.90959996 14678777
0.340994 0.14706281 0.90759999 14679033
0.34274849 0.14706281 0.90759999 14613497
0.3437438 0.14673874 0.90559995 14613497
0.34549439 0.14673874 0.90559995 14547962
0.34724498 0.14673874 0.90559995 14547705
0.3489956 0.14673874 0.90559995 14547705
0.35074621 0.14673874 0.90559995 14547704
0.35249683 0.14673874 0.90559995 14482424
0.35307392 0.14625263 0.90259999 14416376
0.3548187 0.14625263 0.90259999 14351096
0.35656351 0.14625263 0.90259999 14285560
0.35830835 0.14625263 0.90259999 14220025
0.36005315 0.14625263 0.90259999 14154233
0.36099625 0.14592856 0.90059996 14089209
0.36273721 0.14592856 0.90059996 14089208
0.36447814 0.14592856 0.90059996 13891576
0.3654058 0.14560449 0.89859998 13760248
0.36714289 0.14560449 0.89859998 13628664
0.36764845 0.14511839 0.89559996 13497592
0.36937973 0.14511839 0.89559996 13366521
0.37111098 0.14511839 0.89559996 13235449
0.37284225 0.14511839 0.89559996 12971002
0.37457353 0.14511839 0.89559996 12709884
0.37546447 0.14479433 0.89359999 12114174
0.3771919 0.14479433 0.89359999 11588350
0.3789193 0.14479433 0.89359999 10799102
0.38064671 0.14479433 0.89359999 10073598
0.058361351 0.16862781 1.0283999 8088936
0.060349341 0.16862781 1.0283999 8285029
0.060385503 0.16334796 0.99619997 24537954
0.062311243 0.16334796 0.99619997 24075596
0.064043552 0.16285604 0.9932 22498871
0.065963492 0.16285604 0.9932 20922168
0.067883432 0.16285604 0.9932 20586553
0.069803387 0.16285604 0.9932 20259123
0.071723327 0.16285604 0.9932 3220269
0.073643275 0.16285604 0.9932 3023406
0.075563222 0.16285604 0.9932 2957872
0.07748317 0.16285604 0.9932 2892851
0.07940311 0.16285604 0.9932 3155766
0.08132305 0.16285604 0.9932 3483696
0.082991555 0.16236413 0.99019998 3287595
0.084905706 0.16236413 0.99019998 3090733
0.08681985 0.16236413 0.99019998 3090735
0.088733993 0.16236413 0.99019998 3090738
0.090648144 0.16236413 0.99019998 3090741
0.092562288 0.16236413 0.99019998 3156531
0.094476432 0.16236413 0.99019998 3418929
0.096390583 0.16236413 0.99019998 3680815
0.098304726 0.16236413 0.99019998 3418669
0.10021888 0.16236413 0.99019998 3222319
0.10213302 0.16236413 0.99019998 3222834
0.10383701 0.16203618 0.98819995 3286063
0.10574729 0.16203618 0.98819995 3023405
0.10765757 0.16203618 0.98819995 2826283
0.12936524 0.16052765 0.97899997 17236519
0.13125774 0.16052765 0.97899997 18154286
0.13315022 0.16052765 0.97899997 19076139
0.13476685 0.16019972 0.977 19077672
0.13665548 0.16019972 0.977 19144750
0.13854411 0.16019972 0.977 19212085
0.14043273 0.16019972 0.977 19343153
0.14232138 0.16019972 0.977 19474477
0.14421 0.16019972 0.977 19671340
0.14565001 0.1597078 0.97399998 19737644
0.14753284 0.1597078 0.97399998 3025197
0.14941566 0.1597078 0.97399998 3025455
0.15129851 0.1597078 0.97399998 3090479
0.15318133 0.1597078 0.97399998 3090736
0.15458654 0.1592159 0.97099996 3090481
0.15646356 0.1592159 0.97099996 2697011
0.1583406 0.1592159 0.97099996 2370103
0.16021763 0.1592159 0.97099996 2631995
0.16209467 0.1592159 0.97099996 2959413
0.1634651 0.15872398 0.96799999 3090991
0.16533633 0.15872398 0.96799999 3221808
0.16720757 0.15872398 0.96799999 3090736
0.16907878 0.15872398 0.96799999 2959922
0.17095003 0.15872398 0.96799999 2960436
0.17246419 0.15839604 0.96599996 2959925
0.17433155 0.15839604 0.96599996 3090742
0.17619891 0.15839604 0.96599996 3222071
0.17806627 0.15839604 0.96599996 3222072
0.17993365 0.15839604 0.96599996 3287609
0.18180101 0.15839604 0.96599996 3222586
0.18309799 0.15790412 0.963 3157049
0.18495955 0.15790412 0.963 3222584
0.1868211 0.15790412 0.963 3288122
0.18868268 0.15790412 0.963 3354172
0.18995064 0.1574122 0.95999998 3419448
0.19180642 0.1574122 0.95999998 3353907
0.19366218 0.1574122 0.95999998 3353650
0.19511062 0.15708427 0.958 3288370
0.19696252 0.15708427 0.958 3222578
0.19881442 0.15708427 0.958 3288114
0.20066632 0.15708427 0.958 3353133
0.20188403 0.15659234 0.95499998 2828840
0.20437011 0.15708427 0.958 2366523
0.20557624 0.15659234 0.95499998 18356045
0.20742233 0.15659234 0.95499998 17567839
0.20926844 0.15659234 0.95499998 17172594
0.21111454 0.15659234 0.95499998 16844926
0.21296065 0.15659234 0.95499998 16843147
0.21480674 0.15659234 0.95499998 16854673
0.21665284 0.15659234 0.95499998 19349144
0.21804135 0.15626441 0.95299995 21852592
0.21988358 0.15626441 0.95299995 24026056
0.22172581 0.15626441 0.95299995 26260704
0.22356805 0.15626441 0.95299995 28304120
0.22541028 0.15626441 0.95299995 30402555
0.22653715 0.15577251 0.94999999 31588094
0.22837359 0.15577251 0.94999999 32833278
0.23021001 0.15577251 0.94999999 33160958
0.23204646 0.15577251 0.94999999 33488637
0.23309508 0.15524779 0.94679999 33488636
0.23492533 0.15524779 0.94679999 33488634
0.23675558 0.15524779 0.94679999 33357561
0.23858583 0.15524779 0.94679999 33292025
0.23990822 0.15491985 0.94479996 31981305
0.24173461 0.15491985 0.94479996 30731255
0.24356097 0.15491985 0.94479996 29677814
0.24538736 0.15491985 0.94479996 28702456
0.24721375 0.15491985 0.94479996 28435706
0.24824938 0.15442793 0.9418 28174073
0.25006998 0.15442793 0.9418 29288185
0.25189057 0.15442793 0.9418 30405369
0.2537111 0.15442793 0.9418 31390713
0.2555317 0.15442793 0.9418 32439289
0.25735229 0.15442793 0.9418 32571129
0.25862247 0.15409999 0.93979996 32767738
0.26043922 0.15409999 0.93979996 32702203
0.26225594 0.15409999 0.93979996 32636410
0.26407266 0.15409999 0.93979996 31718906
0.26504061 0.15360808 0.9368 30799864
0.26685154 0.15360808 0.9368 30469623
0.26808885 0.15328014 0.93479997 30207991
0.26989591 0.15328014 0.93479997 30405111
0.27170298 0.15328014 0.93479997 30602231
0.27351001 0.15328014 0.93479997 30602744
0.27443352 0.15278822 0.93179995 30603256
0.27623478 0.15278822 0.93179995 13760761
0.27803603 0.15278822 0.93179995 13760761
0.27983728 0.15278822 0.93179995 13760761
0.2816385 0.15278822 0.93179995 13761017
0.28343979 0.15278822 0.93179995 13826809
0.28524104 0.15278822 0.93179995 13892345
0.28704229 0.15278822 0.93179995 13958137
0.28884354 0.15278822 0.93179995 14088953
0.29002094 0.15246028 0.92979997 14154489
0.29181835 0.15246028 0.92979997 14220025
0.2926684 0.15196836 0.92679995 14220281
0.29382455 0.15164042 0.92479998 14285561
0.29561228 0.15164042 0.92479998 14351097
0.2974 0.15164042 0.92479998 14482169
0.29918769 0.15164042 0.92479998 14482169
0.30097544 0.15164042 0.92479998 14482169
0.30276316 0.15164042 0.92479998 14482425
0.30455086 0.15164042 0.92479998 14482168
0.30534485 0.1511485 0.92179996 14351096
0.30712679 0.1511485 0.92179996 14285561
0.3089087 0.1511485 0.92179996 14482169
0.31001654 0.15082058 0.91979998 14678777
0.31179458 0.15082058 0.91979998 14679033
0.3128908 0.15049262 0.91779995 14678776
0.31466499 0.15049262 0.91779995 14678776
0.31643918 0.15049262 0.91779995 14678776
0.31717324 0.15000072 0.91479999 14678777
0.31894165 0.15000072 0.91479999 14678777
0.32071003 0.15000072 0.91479999 14678777
0.32247841 0.15000072 0.91479999 14678777
0.32424682 0.15000072 0.91479999 14679290
0.3260152 0.15000072 0.91479999 14679033
0.32778358 0.15000072 0.91479999 14613241
0.32883149 0.14967278 0.91279995 14547704
0.330596 0.14967278 0.91279995 14547704
0.33236054 0.14967278 0.91279995 14613240
0.33412507 0.14967278 0.91279995 14613241
0.33588958 0.14967278 0.91279995 14613241
0.33765408 0.14967278 0.91279995 14613241
0.33822873 0.14914806 0.90959996 14678777
0.33998707 0.14914806 0.90959996 14613241
0.340994 0.14882012 0.90759999 14613241
0.34274849 0.14882012 0.90759999 14547961
0.3437438 0.14849217 0.90559995 14547961
0.34549439 0.14849217 0.90559995 14482681
0.34724498 0.14849217 0.90559995 14416633
0.3489956 0.14849217 0.90559995 14416633
0.35074621 0.14849217 0.90559995 14416633
0.35249683 0.14849217 0.90559995 14416888
0.35307392 0.14800027 0.90259999 14416632
0.3548187 0.14800027 0.90259999 14285561
0.35656351 0.14800027 0.90259999 14154489
0.35830835 0.14800027 0.90259999 14089209
0.36005315 0.14800027 0.90259999 14023161
0.36099625 0.14767233 0.90059996 13958393
0.36273721 0.14767233 0.90059996 13958137
0.36447814 0.14767233 0.90059996 13760249
0.3654058 0.14734438 0.89859998 13628408
0.36714289 0.14734438 0.89859998 13496312
0.36764845 0.14685246 0.89559996 13432056
0.36937973 0.14685246 0.89559996 13233657
0.37111098 0.14685246 0.89559996 13102841
0.37284225 0.14685246 0.89559996 12773370
0.37457353 0.14685246 0.89559996 12444924
0.37546447 0.14652453 0.89359999 11981310
0.3771919 0.14652453 0.89359999 11586814
0.3789193 0.14652453 0.89359999 10799358
0.056534015 0.16527683 0.99619997 8878697
0.058459755 0.16527683 0.99619997 25590636
0.060385503 0.16527683 0.99619997 24603247
0.062311243 0.16527683 0.99619997 23685200
0.064043552 0.16477911 0.9932 22038322
0.065963492 0.16477911 0.9932 20462644
0.067883432 0.16477911 0.9932 20259127
0.069803387 0.16477911 0.9932 20062257
0.071723327 0.16477911 0.9932 3088684
0.073643275 0.16477911 0.9932 2892334
0.075563222 0.16477911 0.9932 2826800
0.07748317 0.16477911 0.9932 2761527
0.07940311 0.16477911 0.9932 2958654
0.08132305 0.16477911 0.9932 3222069
0.082991555 0.16428138 0.99019998 3025453
0.084905706 0.16428138 0.99019998 2894383
0.086644493 0.16394956 0.98819995 2894129
0.08855477 0.16394956 0.98819995 2894128
0.090465046 0.16394956 0.98819995 2894128
0.092375331 0.16394956 0.98819995 2959664
0.094285607 0.16394956 0.98819995 3090737
0.096195891 0.16394956 0.98819995 3286831
0.098106168 0.16394956 0.98819995 3156525
0.10001645 0.16394956 0.98819995 3091507
0.10192673 0.16394956 0.98819995 3090746
0.10383701 0.16394956 0.98819995 3090230
0.10574729 0.16394956 0.98819995 2958386
0.10765757 0.16394956 0.98819995 2892848
0.12976167 0.16292094 0.98199999 17564164
0.13165995 0.16292094 0.98199999 18023430
0.13315022 0.16242322 0.97899997 18482450
0.13504273 0.16242322 0.97899997 18352670
0.13693522 0.16242322 0.97899997 18221860
0.13882773 0.16242322 0.97899997 18420011
0.14043273 0.1620914 0.977 18617640
0.14232138 0.1620914 0.977 18816293
0.14421 0.1620914 0.977 19016231
0.14609861 0.1620914 0.977 19146281
0.14753284 0.16159369 0.97399998 19277099
0.14941566 0.16159369 0.97399998 19473198
0.15129851 0.16159369 0.97399998 19669550
0.15318133 0.16159369 0.97399998 19670575
0.15458654 0.16109595 0.97099996 19736112
0.15646356 0.16109595 0.97099996 19736625
0.1583406 0.16109595 0.97099996 2959923
0.16021763 0.16109595 0.97099996 3025205
0.16209467 0.16109595 0.97099996 3024689
0.16397169 0.16109595 0.97099996 3090221
0.16533633 0.16059825 0.96799999 3155758
0.16720757 0.16059825 0.96799999 3090223
0.16907878 0.16059825 0.96799999 3024689
0.17095003 0.16059825 0.96799999 2894132
0.17246419 0.16026641 0.96599996 2828853
0.17433155 0.16026641 0.96599996 2959926
0.17619891 0.16026641 0.96599996 3090998
0.17806627 0.16026641 0.96599996 3221558
0.17993365 0.16026641 0.96599996 3417654
0.18180101 0.16026641 0.96599996 3287607
0.18309799 0.15976872 0.963 3091511
0.18495955 0.15976872 0.963 3156791
0.1868211 0.15976872 0.963 3156282
0.18868268 0.15976872 0.963 3288126
0.18995064 0.15927097 0.95999998 3353909
0.1924058 0.15976872 0.963 3419181
0.19366218 0.15927097 0.95999998 3484465
0.19551794 0.15927097 0.95999998 3353397
0.19696252 0.15893918 0.958 3222841
0.19881442 0.15893918 0.958 3288126
0.20066632 0.15893918 0.958 3288128
0.20188403 0.15844144 0.95499998 3156547
0.20373014 0.15844144 0.95499998 3025216
0.20557624 0.15844144 0.95499998 2565950
0.20742233 0.15844144 0.95499998 2107190
0.20926844 0.15844144 0.95499998 1841710
0.21111454 0.15844144 0.95499998 18353445
0.21296065 0.15844144 0.95499998 18352669
0.21480674 0.15844144 0.95499998 18350375
0.21665284 0.15844144 0.95499998 19005746
0.21804135 0.15810964 0.95299995 19661154
0.21988358 0.15810964 0.95299995 20653458
0.22172581 0.15810964 0.95299995 21573826
0.22356805 0.15810964 0.95299995 22569715
0.2247007 0.15761191 0.94999999 23628280
0.22653715 0.15761191 0.94999999 25144318
0.22837359 0.15761191 0.94999999 26668286
0.22943458 0.15708101 0.94679999 27848446
0.23126483 0.15708101 0.94679999 29032190
0.23309508 0.15708101 0.94679999 30080766
0.23492533 0.15708101 0.94679999 31129342
0.23675558 0.15708101 0.94679999 31981310
0.23858583 0.15708101 0.94679999 32833278
0.24041608 0.15708101 0.94679999 32440062
0.24173461 0.15674919 0.94479996 32046844
0.24356097 0.15674919 0.94479996 31521786
0.24538736 0.15674919 0.94479996 31063032
0.24721375 0.15674919 0.94479996 30929655
0.24824938 0.15625148 0.9418 30797045
0.25006998 0.15625148 0.9418 30993396
0.25189057 0.15625148 0.9418 31189492
0.2537111 0.15625148 0.9418 30992885
0.2555317 0.15625148 0.9418 30729973
0.25735229 0.15625148 0.9418 30666741
0.25862247 0.15591966 0.93979996 30670584
0.26043922 0.15591966 0.93979996 30604795
0.26141876 0.15542194 0.9368 30604794
0.2632297 0.15542194 0.9368 30275578
0.26504061 0.15542194 0.9368 29947640
0.26685154 0.15542194 0.9368 29747958
0.26808885 0.15509011 0.93479997 29616118
0.27047336 0.15542194 0.9368 29748727
0.27170298 0.15509011 0.93479997 29881335
0.27351001 0.15509011 0.93479997 30012408
0.27531707 0.15509011 0.93479997 30144504
0.27623478 0.15459239 0.93179995 13432825
0.27803603 0.15459239 0.93179995 13498361
0.27983728 0.15459239 0.93179995 13498361
0.2816385 0.15459239 0.93179995 13564409
0.28343979 0.15459239 0.93179995 13694969
0.28524104 0.15459239 0.93179995 13826041
0.28704229 0.15459239 0.93179995 13826297
0.28884354 0.15459239 0.93179995 13827065
0.29002094 0.15426058 0.92979997 13892346
0.29181835 0.15426058 0.92979997 13892346
0.2926684 0.15376286 0.92679995 13957882
0.29382455 0.15343104 0.92479998 14023673
0.29561228 0.15343104 0.92479998 14088953
0.2974 0.15343104 0.92479998 14154489
0.29918769 0.15343104 0.92479998 14220025
0.29999906 0.15293333 0.92179996 14285561
0.301781 0.15293333 0.92179996 14285561
0.30455086 0.15343104 0.92479998 14285560
0.30534485 0.15293333 0.92179996 14285560
0.30712679 0.15293333 0.92179996 14285817
0.3089087 0.15293333 0.92179996 14416634
0.31069061 0.15293333 0.92179996 14613241
0.31179458 0.15260151 0.91979998 14547961
0.3128908 0.15226969 0.91779995 14548217
0.31466499 0.15226969 0.91779995 14482169
0.31643918 0.15226969 0.91779995 14482425
