# .PCD v0.7 - Point Cloud Data file format
VERSION 0.7
FIELDS x y z rgba
SIZE 4 4 4 4
TYPE F F F U
COUNT 1 1 1 1
WIDTH 1139
HEIGHT 1
VIEWPOINT 0 0 0 1 0 0 0
POINTS 1139
DATA ascii
0.2974 0.14268734 0.92479998 16711422
0.29918769 0.14268734 0.92479998 16711422
0.30097544 0.14268734 0.92479998 16711422
0.30276316 0.14268734 0.92479998 16711422
0.30455086 0.14268734 0.92479998 16711422
0.30534485 0.14222446 0.92179996 16711422
0.30712679 0.14222446 0.92179996 16711422
0.3089087 0.14222446 0.92179996 16711422
0.31069061 0.14222446 0.92179996 16711422
0.31179458 0.14191589 0.91979998 16711422
0.31357265 0.14191589 0.91979998 16711422
0.31535071 0.14191589 0.91979998 16711422
0.31643918 0.1416073 0.91779995 16711422
0.31821337 0.1416073 0.91779995 16711422
0.31894165 0.14114444 0.91479999 16711422
0.32071003 0.14114444 0.91479999 16711422
0.32247841 0.14114444 0.91479999 16711422
0.32424682 0.14114444 0.91479999 16711422
0.3260152 0.14114444 0.91479999 16711422
0.32706696 0.14083584 0.91279995 16711422
0.32883149 0.14083584 0.91279995 16711422
0.330596 0.14083584 0.91279995 16711422
0.33236054 0.14083584 0.91279995 16711422
0.33412507 0.14083584 0.91279995 16711422
0.33471206 0.14034212 0.90959996 16711422
0.3364704 0.14034212 0.90959996 16711422
0.33748505 0.14003353 0.90759999 16711422
0.33923954 0.14003353 0.90759999 16711422
0.34024256 0.13972495 0.90559995 16711422
0.34199315 0.13972495 0.90559995 16711422
0.3437438 0.13972495 0.90559995 16711422
0.34549439 0.13972495 0.90559995 16711422
0.34609467 0.13926208 0.90259999 16711422
0.34783947 0.13926208 0.90259999 16645886
0.34958431 0.13926208 0.90259999 16645630
0.35132912 0.13926208 0.90259999 16645886
0.35307392 0.13926208 0.90259999 16645886
0.35403252 0.13895351 0.90059996 16645886
0.35498336 0.13864493 0.89859998 16645886
0.35672045 0.13864493 0.89859998 16645886
0.35845751 0.13864493 0.89859998 16711422
0.35899207 0.13818206 0.89559996 16711422
0.36072335 0.13818206 0.89559996 16711422
0.36245462 0.13818206 0.89559996 16645886
0.3641859 0.13818206 0.89559996 16645886
0.36591718 0.13818206 0.89559996 16645886
0.36764845 0.13818206 0.89559996 16711422
0.36855483 0.13787349 0.89359999 16711422
0.37028226 0.13787349 0.89359999 16711422
0.37200966 0.13787349 0.89359999 16711422
0.37373707 0.13787349 0.89359999 16711422
0.37546447 0.13787349 0.89359999 16711422
0.37508139 0.13710204 0.88859999 16711422
0.37595102 0.13679343 0.88659996 16645886
0.37766489 0.13679343 0.88659996 16645886
0.3793788 0.13679343 0.88659996 16645886
0.38109267 0.13679343 0.88659996 16645886
0.38280654 0.13679343 0.88659996 16645886
0.20543678 0.15044579 0.963 2958382
0.20729834 0.15044579 0.963 2958371
0.2091599 0.15044579 0.963 2958368
0.21102147 0.15044579 0.963 2434590
0.21288304 0.15044579 0.963 1971501
0.2147446 0.15044579 0.963 18091069
0.21660617 0.15044579 0.963 17500246
0.21778715 0.14997712 0.95999998 17170800
0.21964291 0.14997712 0.95999998 16909182
0.22149867 0.14997712 0.95999998 17106061
0.22288913 0.14966467 0.958 17384863
0.22474103 0.14966467 0.958 20539825
0.22588335 0.14919597 0.95499998 23694798
0.22772945 0.14919597 0.95499998 25869290
0.22957556 0.14919597 0.95499998 28103412
0.23142165 0.14919597 0.95499998 30146302
0.23277922 0.14888352 0.95299995 32243454
0.23462145 0.14888352 0.95299995 32767742
0.2364637 0.14888352 0.95299995 33292028
0.23830593 0.14888352 0.95299995 33292027
0.24014816 0.14888352 0.95299995 33357562
0.24122864 0.14841485 0.94999999 32767737
0.24306506 0.14841485 0.94999999 32174329
0.24490151 0.14841485 0.94999999 30205433
0.24590683 0.14791493 0.94679999 28304119
0.24773708 0.14791493 0.94679999 27641589
0.24956731 0.14791493 0.94679999 27057399
0.25139758 0.14791493 0.94679999 28168698
0.25269291 0.14760247 0.94479996 29288697
0.25451928 0.14760247 0.94479996 30735608
0.25634566 0.14760247 0.94479996 32242937
0.25817204 0.14760247 0.94479996 32833275
0.25917289 0.1471338 0.9418 33488636
0.26099348 0.1471338 0.9418 33488638
0.26281404 0.1471338 0.9418 33488638
0.26463464 0.1471338 0.9418 33488638
0.26588935 0.14682133 0.93979996 16711422
0.2677061 0.14682133 0.93979996 16711422
0.26866245 0.14635266 0.9368 16711422
0.27047336 0.14635266 0.9368 16711422
0.27170298 0.14604022 0.93479997 16711422
0.27351001 0.14604022 0.93479997 16711422
0.27531707 0.14604022 0.93479997 16711422
0.27712411 0.14604022 0.93479997 16711422
0.27803603 0.14557151 0.93179995 16711422
0.27983728 0.14557151 0.93179995 16711422
0.2816385 0.14557151 0.93179995 16711422
0.28343979 0.14557151 0.93179995 16711422
0.28524104 0.14557151 0.93179995 16711422
0.28704229 0.14557151 0.93179995 16711422
0.28884354 0.14557151 0.93179995 16711422
0.29002094 0.14525907 0.92979997 16711422
0.29181835 0.14525907 0.92979997 16711422
0.2926684 0.1447904 0.92679995 16711422
0.29445997 0.1447904 0.92679995 16711422
0.29561228 0.14447795 0.92479998 16711422
0.2974 0.14447795 0.92479998 16711422
0.29918769 0.14447795 0.92479998 16711422
0.30097544 0.14447795 0.92479998 16711422
0.30276316 0.14447795 0.92479998 16711422
0.30455086 0.14447795 0.92479998 16711422
0.30534485 0.14400928 0.92179996 16711422
0.30712679 0.14400928 0.92179996 16711422
0.3089087 0.14400928 0.92179996 16711422
0.31001654 0.14369683 0.91979998 16711422
0.31179458 0.14369683 0.91979998 16711422
0.31357265 0.14369683 0.91979998 16711422
0.31466499 0.14338437 0.91779995 16711422
0.31643918 0.14338437 0.91779995 16711422
0.31821337 0.14338437 0.91779995 16711422
0.31894165 0.14291568 0.91479999 16711422
0.32071003 0.14291568 0.91479999 16711422
0.32247841 0.14291568 0.91479999 16711422
0.32424682 0.14291568 0.91479999 16711422
0.3260152 0.14291568 0.91479999 16711422
0.32706696 0.14260323 0.91279995 16711422
0.32883149 0.14260323 0.91279995 16711422
0.330596 0.14260323 0.91279995 16711422
0.33236054 0.14260323 0.91279995 16711422
0.33412507 0.14260323 0.91279995 16711422
0.33471206 0.1421033 0.90959996 16711422
0.33573058 0.14179085 0.90759999 16711422
0.33748505 0.14179085 0.90759999 16711422
0.33923954 0.14179085 0.90759999 16711422
0.34024256 0.1414784 0.90559995 16711422
0.34199315 0.1414784 0.90559995 16711422
0.3437438 0.1414784 0.90559995 16711422
0.34434989 0.14100973 0.90259999 16711422
0.34609467 0.14100973 0.90259999 16711422
0.34783947 0.14100973 0.90259999 16711422
0.34958431 0.14100973 0.90259999 16711165
0.35132912 0.14100973 0.90259999 16645885
0.35229155 0.14069727 0.90059996 16645885
0.35403252 0.14069727 0.90059996 16645885
0.35498336 0.14038482 0.89859998 16645885
0.35672045 0.14038482 0.89859998 16645885
0.35845751 0.14038482 0.89859998 16711421
0.35899207 0.13991614 0.89559996 16711422
0.36072335 0.13991614 0.89559996 16711421
0.36245462 0.13991614 0.89559996 16645885
0.3641859 0.13991614 0.89559996 16645885
0.36591718 0.13991614 0.89559996 16645886
0.36682743 0.13960369 0.89359999 16711422
0.36855483 0.13960369 0.89359999 16711422
0.37028226 0.13960369 0.89359999 16711422
0.37200966 0.13960369 0.89359999 16711422
0.37373707 0.13960369 0.89359999 16711422
0.37462413 0.13929123 0.89159995 16711422
0.37508139 0.13882257 0.88859999 16711422
0.37595102 0.13851011 0.88659996 16645886
0.37766489 0.13851011 0.88659996 16645885
0.3793788 0.13851011 0.88659996 16580349
0.38109267 0.13851011 0.88659996 16580349
0.38194302 0.13819766 0.88459998 16580349
0.20543678 0.15231037 0.963 2893358
0.20729834 0.15231037 0.963 2893608
0.2091599 0.15231037 0.963 2959915
0.21102147 0.15231037 0.963 2696495
0.21288304 0.15231037 0.963 2433835
0.2147446 0.15231037 0.963 2235432
0.21660617 0.15231037 0.963 1972517
0.21778715 0.15183589 0.95999998 1773347
0.21964291 0.15183589 0.95999998 18285087
0.22103722 0.15151957 0.958 18416156
0.22288913 0.15151957 0.958 18481472
0.22474103 0.15151957 0.958 19464549
0.22588335 0.15104507 0.95499998 20382110
0.22772945 0.15104507 0.95499998 21449943
0.22957556 0.15104507 0.95499998 22446314
0.23093699 0.15072873 0.95299995 24027646
0.23277922 0.15072873 0.95299995 25614078
0.23462145 0.15072873 0.95299995 27320318
0.2364637 0.15072873 0.95299995 29032190
0.23830593 0.15072873 0.95299995 30342910
0.24014816 0.15072873 0.95299995 31653630
0.24122864 0.15025425 0.94999999 32046846
0.24306506 0.15025425 0.94999999 32440062
0.24407658 0.14974815 0.94679999 31588094
0.24590683 0.14974815 0.94679999 30801658
0.24773708 0.14974815 0.94679999 30470646
0.24904013 0.14943181 0.94479996 30207734
0.25086653 0.14943181 0.94479996 30401782
0.25269291 0.14943181 0.94479996 30595316
0.25451928 0.14943181 0.94479996 30467058
0.25634566 0.14943181 0.94479996 30337013
0.25817204 0.14943181 0.94479996 30470649
0.25917289 0.14895733 0.9418 30605051
0.26099348 0.14895733 0.9418 31194878
0.26281404 0.14895733 0.9418 31784702
0.26463464 0.14895733 0.9418 32440062
0.26588935 0.14864099 0.93979996 33160958
0.2677061 0.14864099 0.93979996 33292030
0.26866245 0.14816652 0.9368 33488638
0.27047336 0.14816652 0.9368 16711422
0.27170298 0.1478502 0.93479997 16711422
0.27351001 0.1478502 0.93479997 16711422
0.27531707 0.1478502 0.93479997 16711422
0.27712411 0.1478502 0.93479997 16711422
0.27803603 0.14737569 0.93179995 16711422
0.27983728 0.14737569 0.93179995 16711422
0.2816385 0.14737569 0.93179995 16711422
0.28343979 0.14737569 0.93179995 16711422
0.28524104 0.14737569 0.93179995 16711422
0.28704229 0.14737569 0.93179995 16711422
0.28822356 0.14705938 0.92979997 16711422
0.29002094 0.14705938 0.92979997 16711422
0.29087681 0.1465849 0.92679995 16711422
0.2926684 0.1465849 0.92679995 16711422
0.29445997 0.1465849 0.92679995 16711422
0.29561228 0.14626856 0.92479998 16711422
0.2974 0.14626856 0.92479998 16711422
0.29918769 0.14626856 0.92479998 16711422
0.30097544 0.14626856 0.92479998 16711422
0.30276316 0.14626856 0.92479998 16711422
0.30455086 0.14626856 0.92479998 16711422
0.30534485 0.14579408 0.92179996 16711422
0.30712679 0.14579408 0.92179996 16711422
0.3089087 0.14579408 0.92179996 16711422
0.31001654 0.14547776 0.91979998 16711422
0.31179458 0.14547776 0.91979998 16711422
0.3128908 0.14516144 0.91779995 16711422
0.31466499 0.14516144 0.91779995 16711422
0.31643918 0.14516144 0.91779995 16711422
0.31717324 0.14468695 0.91479999 16711422
0.31894165 0.14468695 0.91479999 16711422
0.32071003 0.14468695 0.91479999 16711422
0.32247841 0.14468695 0.91479999 16711422
0.32424682 0.14468695 0.91479999 16711422
0.3260152 0.14468695 0.91479999 16711422
0.32706696 0.14437062 0.91279995 16711422
0.32883149 0.14437062 0.91279995 16711422
0.330596 0.14437062 0.91279995 16711422
0.33236054 0.14437062 0.91279995 16711422
0.33412507 0.14437062 0.91279995 16711422
0.33471206 0.1438645 0.90959996 16711422
0.3364704 0.1438645 0.90959996 16711422
0.33748505 0.14354818 0.90759999 16711422
0.33923954 0.14354818 0.90759999 16711422
0.34024256 0.14323184 0.90559995 16711422
0.34199315 0.14323184 0.90559995 16711422
0.3437438 0.14323184 0.90559995 16711422
0.34549439 0.14323184 0.90559995 16645886
0.34724498 0.14323184 0.90559995 16580350
0.34783947 0.14275737 0.90259999 16580094
0.34958431 0.14275737 0.90259999 16580093
0.35132912 0.14275737 0.90259999 16514557
0.35229155 0.14244103 0.90059996 16514557
0.35403252 0.14244103 0.90059996 16514557
0.35498336 0.14212471 0.89859998 16514557
0.35751438 0.14244103 0.90059996 16580093
0.35845751 0.14212471 0.89859998 16645885
0.35899207 0.14165021 0.89559996 16645886
0.36072335 0.14165021 0.89559996 16645885
0.36245462 0.14165021 0.89559996 16645885
0.3641859 0.14165021 0.89559996 16580349
0.36591718 0.14165021 0.89559996 16580350
0.36764845 0.14165021 0.89559996 16645886
0.36855483 0.14133391 0.89359999 16645886
0.37028226 0.14133391 0.89359999 16645886
0.37200966 0.14133391 0.89359999 16645886
0.37373707 0.14133391 0.89359999 16645886
0.37462413 0.14101757 0.89159995 16645886
0.37508139 0.14054309 0.88859999 16645886
0.37595102 0.14022675 0.88659996 16580350
0.37766489 0.14022675 0.88659996 16580349
0.3793788 0.14022675 0.88659996 16580093
0.38109267 0.14022675 0.88659996 16580093
0.38194302 0.13991044 0.88459998 16580093
0.14874461 0.15721683 0.98199999 26506865
0.1506429 0.15721683 0.98199999 25322083
0.15300719 0.15769711 0.98499995 24205641
0.15491129 0.15769711 0.98499995 21969967
0.15633778 0.15721683 0.98199999 19738165
0.15823609 0.15721683 0.98199999 18813243
0.15964517 0.15673652 0.97899997 17895216
0.16153766 0.15673652 0.97899997 18156838
0.16343015 0.15673652 0.97899997 18490160
0.16532266 0.15673652 0.97899997 18491963
0.16687354 0.15641634 0.977 18498384
0.16876218 0.15641634 0.977 21783909
0.17065081 0.15641634 0.977 25065848
0.17253943 0.15641634 0.977 27237771
0.17442808 0.15641634 0.977 29465988
0.20357519 0.15417497 0.963 3024177
0.20543678 0.15417497 0.963 2893102
0.20729834 0.15417497 0.963 2893867
0.2091599 0.15417497 0.963 2959148
0.21102147 0.15417497 0.963 2958638
0.21221985 0.15369466 0.95999998 2958636
0.21407561 0.15369466 0.95999998 3090217
0.21593137 0.15369466 0.95999998 3286312
0.21778715 0.15369466 0.95999998 3089703
0.21964291 0.15369466 0.95999998 2957095
0.22103722 0.15337446 0.958 2891302
0.22288913 0.15337446 0.958 2887990
0.22403724 0.15289417 0.95499998 18416711
0.22588335 0.15289417 0.95499998 17171296
0.22772945 0.15289417 0.95499998 16974202
0.22909476 0.15257396 0.95299995 16846467
0.23093699 0.15257396 0.95299995 17895565
0.23277922 0.15257396 0.95299995 19026851
0.23462145 0.15257396 0.95299995 21921465
0.2364637 0.15257396 0.95299995 24814041
0.23830593 0.15257396 0.95299995 27384312
0.23939219 0.15209368 0.94999999 29942267
0.24122864 0.15209368 0.94999999 31325950
0.24306506 0.15209368 0.94999999 32702206
0.24407658 0.15158136 0.94679999 33029886
0.24590683 0.15158136 0.94679999 33357564
0.24773708 0.15158136 0.94679999 33357562
0.24956731 0.15158136 0.94679999 33357562
0.25086653 0.15126115 0.94479996 32636666
0.25269291 0.15126115 0.94479996 31910904
0.25451928 0.15126115 0.94479996 30137079
0.25634566 0.15126115 0.94479996 28435192
0.25817204 0.15126115 0.94479996 28107256
0.25917289 0.15078087 0.9418 27779320
0.26099348 0.15078087 0.9418 28958712
0.26281404 0.15078087 0.9418 30141688
0.26463464 0.15078087 0.9418 31456760
0.26588935 0.15046066 0.93979996 32833018
0.2677061 0.15046066 0.93979996 33160956
0.26866245 0.14998038 0.9368 33488637
0.27047336 0.14998038 0.9368 33488638
0.27170298 0.14966017 0.93479997 33488638
0.27351001 0.14966017 0.93479997 33488638
0.27531707 0.14966017 0.93479997 16711422
0.27712411 0.14966017 0.93479997 16711422
0.2789312 0.14966017 0.93479997 16711422
0.28073823 0.14966017 0.93479997 16711422
0.2816385 0.14917988 0.93179995 16711422
0.28343979 0.14917988 0.93179995 16711422
0.28524104 0.14917988 0.93179995 16711422
0.28704229 0.14917988 0.93179995 16711422
0.28884354 0.14917988 0.93179995 16711422
0.29002094 0.14885968 0.92979997 16711422
0.29181835 0.14885968 0.92979997 16711422
0.2926684 0.14837939 0.92679995 16711422
0.29445997 0.14837939 0.92679995 16711422
0.29561228 0.14805919 0.92479998 16711422
0.2974 0.14805919 0.92479998 16711422
0.29918769 0.14805919 0.92479998 16711422
0.30097544 0.14805919 0.92479998 16711422
0.30276316 0.14805919 0.92479998 16711422
0.30455086 0.14805919 0.92479998 16711422
0.30534485 0.14757888 0.92179996 16711422
0.30712679 0.14757888 0.92179996 16711422
0.3089087 0.14757888 0.92179996 16711422
0.31001654 0.1472587 0.91979998 16711422
0.31179458 0.1472587 0.91979998 16711422
0.3128908 0.1469385 0.91779995 16711422
0.31466499 0.1469385 0.91779995 16711422
0.31540486 0.14645821 0.91479999 16711422
0.31717324 0.14645821 0.91479999 16711422
0.31894165 0.14645821 0.91479999 16711422
0.32071003 0.14645821 0.91479999 16711422
0.32247841 0.14645821 0.91479999 16711422
0.32424682 0.14645821 0.91479999 16711422
0.3260152 0.14645821 0.91479999 16711422
0.32778358 0.14645821 0.91479999 16711422
0.32883149 0.14613801 0.91279995 16711422
0.330596 0.14613801 0.91279995 16711422
0.33236054 0.14613801 0.91279995 16711422
0.33412507 0.14613801 0.91279995 16711422
0.33471206 0.1456257 0.90959996 16711422
0.3364704 0.1456257 0.90959996 16711422
0.33748505 0.14530548 0.90759999 16711422
0.33923954 0.14530548 0.90759999 16711422
0.34024256 0.14498529 0.90559995 16711422
0.34199315 0.14498529 0.90559995 16711422
0.3437438 0.14498529 0.90559995 16711422
0.34549439 0.14498529 0.90559995 16580350
0.34724498 0.14498529 0.90559995 16514557
0.34783947 0.14450499 0.90259999 16449021
0.34958431 0.14450499 0.90259999 16448764
0.35132912 0.14450499 0.90259999 16448764
0.35229155 0.1441848 0.90059996 16448764
0.35403252 0.1441848 0.90059996 16449020
0.35577342 0.1441848 0.90059996 16448764
0.35672045 0.1438646 0.89859998 16514301
0.35845751 0.1438646 0.89859998 16580093
0.35899207 0.14338431 0.89559996 16580093
0.36072335 0.14338431 0.89559996 16645628
0.36245462 0.14338431 0.89559996 16580092
0.3641859 0.14338431 0.89559996 16580092
0.36591718 0.14338431 0.89559996 16580093
0.36682743 0.14306411 0.89359999 16580093
0.36855483 0.14306411 0.89359999 16580093
0.37028226 0.14306411 0.89359999 16580093
0.37200966 0.14306411 0.89359999 16580093
0.37373707 0.14306411 0.89359999 16580093
0.37462413 0.14274392 0.89159995 16580093
0.37508139 0.14226362 0.88859999 16580093
0.37679911 0.14226362 0.88859999 16580093
0.37766489 0.14194342 0.88659996 16580092
0.3793788 0.14194342 0.88659996 16580092
0.38109267 0.14194342 0.88659996 16580092
0.38194302 0.14162321 0.88459998 16580092
0.14684631 0.15911821 0.98199999 26181246
0.14874461 0.15911821 0.98199999 25195116
0.1506429 0.15911821 0.98199999 24011354
0.15254121 0.15911821 0.98199999 22894403
0.15491129 0.1596043 0.98499995 21247788
0.15633778 0.15911821 0.98199999 19672369
0.15823609 0.15911821 0.98199999 2298166
0.15964517 0.1586321 0.97899997 1774126
0.16153766 0.1586321 0.97899997 18682663
0.16343015 0.1586321 0.97899997 18881057
0.16532266 0.1586321 0.97899997 18684443
0.16687354 0.15830801 0.977 18483490
0.16876218 0.15830801 0.977 19932201
0.17065081 0.15830801 0.977 21376854
0.17253943 0.15830801 0.977 22370948
0.17442808 0.15830801 0.977 23432598
0.19212717 0.15733582 0.97099996 20912922
0.19340479 0.15684971 0.96799999 20127027
0.19487256 0.15652564 0.96599996 19406127
0.19673993 0.15652564 0.96599996 2696236
0.1986073 0.15652564 0.96599996 2696747
0.20047466 0.15652564 0.96599996 2893098
0.20234202 0.15652564 0.96599996 3024172
0.20357519 0.15603954 0.963 2958638
0.20543678 0.15603954 0.963 2893102
0.20729834 0.15603954 0.963 2893358
0.2091599 0.15603954 0.963 2959150
0.21102147 0.15603954 0.963 2959150
0.21221985 0.15555343 0.95999998 2959404
0.21407561 0.15555343 0.95999998 3221291
0.21593137 0.15555343 0.95999998 3417899
0.21778715 0.15555343 0.95999998 3220780
0.21918532 0.15522937 0.958 3024430
0.22103722 0.15522937 0.958 3023921
0.22288913 0.15522937 0.958 3023405
0.22403724 0.15474327 0.95499998 2366505
0.22588335 0.15474327 0.95499998 1710627
0.22772945 0.15474327 0.95499998 18419742
0.22909476 0.15441918 0.95299995 18350365
0.23093699 0.15441918 0.95299995 18546972
0.23277922 0.15441918 0.95299995 18809160
0.23462145 0.15441918 0.95299995 19861109
0.2364637 0.15441918 0.95299995 20844724
0.23830593 0.15441918 0.95299995 22108403
0.23939219 0.15393308 0.94999999 23366392
0.24122864 0.15393308 0.94999999 25210366
0.24306506 0.15393308 0.94999999 27060990
0.24407658 0.15341458 0.94679999 28241406
0.24590683 0.15341458 0.94679999 29490942
0.24773708 0.15341458 0.94679999 30736126
0.24904013 0.15309051 0.94479996 32046846
0.25086653 0.15309051 0.94479996 32243454
0.25269291 0.15309051 0.94479996 32440061
0.25451928 0.15309051 0.94479996 31653629
0.25634566 0.15309051 0.94479996 30867194
0.25817204 0.15309051 0.94479996 30666744
0.25917289 0.1526044 0.9418 30531573
0.26099348 0.1526044 0.9418 30531570
0.26281404 0.1526044 0.9418 30594802
0.26463464 0.1526044 0.9418 30664947
0.26588935 0.15228032 0.93979996 30733303
0.2677061 0.15228032 0.93979996 30734075
0.26866245 0.15179422 0.9368 30801660
0.27047336 0.15179422 0.9368 31457022
0.27228427 0.15179422 0.9368 32177918
0.27351001 0.15147015 0.93479997 32767742
0.27531707 0.15147015 0.93479997 33423102
0.27712411 0.15147015 0.93479997 33423102
0.2789312 0.15147015 0.93479997 33488638
0.28073823 0.15147015 0.93479997 33488638
0.2816385 0.15098405 0.93179995 33488638
0.28343979 0.15098405 0.93179995 16711422
0.28524104 0.15098405 0.93179995 16711422
0.28704229 0.15098405 0.93179995 16711422
0.28884354 0.15098405 0.93179995 16711422
0.29002094 0.15065998 0.92979997 16711422
0.29181835 0.15065998 0.92979997 16711422
0.2926684 0.15017387 0.92679995 16711422
0.29445997 0.15017387 0.92679995 16711422
0.29561228 0.1498498 0.92479998 16711422
0.2974 0.1498498 0.92479998 16711422
0.29918769 0.1498498 0.92479998 16711422
0.30097544 0.1498498 0.92479998 16711422
0.30276316 0.1498498 0.92479998 16711422
0.30455086 0.1498498 0.92479998 16711422
0.30534485 0.1493637 0.92179996 16711422
0.30712679 0.1493637 0.92179996 16711422
0.3089087 0.1493637 0.92179996 16711422
0.31001654 0.14903964 0.91979998 16711422
0.31179458 0.14903964 0.91979998 16711422
0.3128908 0.14871557 0.91779995 16711422
0.31466499 0.14871557 0.91779995 16711422
0.31540486 0.14822945 0.91479999 16711422
0.31717324 0.14822945 0.91479999 16711422
0.31894165 0.14822945 0.91479999 16711422
0.32071003 0.14822945 0.91479999 16711422
0.32247841 0.14822945 0.91479999 16711422
0.32424682 0.14822945 0.91479999 16711422
0.3260152 0.14822945 0.91479999 16711422
0.32778358 0.14822945 0.91479999 16711422
0.32883149 0.14790538 0.91279995 16711422
0.330596 0.14790538 0.91279995 16711422
0.33236054 0.14790538 0.91279995 16711422
0.33412507 0.14790538 0.91279995 16711422
0.33471206 0.14738688 0.90959996 16711422
0.3364704 0.14738688 0.90959996 16711422
0.33748505 0.14706281 0.90759999 16711422
0.33923954 0.14706281 0.90759999 16711422
0.34024256 0.14673874 0.90559995 16711422
0.34199315 0.14673874 0.90559995 16711422
0.3437438 0.14673874 0.90559995 16711422
0.34549439 0.14673874 0.90559995 16514814
0.34724498 0.14673874 0.90559995 16317693
0.34783947 0.14625263 0.90259999 16317692
0.34958431 0.14625263 0.90259999 16317692
0.35132912 0.14625263 0.90259999 16317692
0.35229155 0.14592856 0.90059996 16317692
0.35403252 0.14592856 0.90059996 16317692
0.35577342 0.14592856 0.90059996 16317692
0.35751438 0.14592856 0.90059996 16383229
0.35845751 0.14560449 0.89859998 16449020
0.35899207 0.14511839 0.89559996 16449020
0.36072335 0.14511839 0.89559996 16449020
0.36245462 0.14511839 0.89559996 16449020
0.3641859 0.14511839 0.89559996 16514556
0.36591718 0.14511839 0.89559996 16514556
0.36682743 0.14479433 0.89359999 16514556
0.36855483 0.14479433 0.89359999 16514556
0.37028226 0.14479433 0.89359999 16514556
0.37200966 0.14479433 0.89359999 16514556
0.37373707 0.14479433 0.89359999 16514556
0.37462413 0.14447024 0.89159995 16514557
0.37508139 0.14398414 0.88859999 16514556
0.37679911 0.14398414 0.88859999 16514556
0.37766489 0.14366007 0.88659996 16514556
0.3793788 0.14366007 0.88659996 16514556
0.38109267 0.14366007 0.88659996 16514556
0.38194302 0.14333601 0.88459998 16514556
0.14684631 0.16101958 0.98199999 24935027
0.14829019 0.16052765 0.97899997 23947367
0.1506429 0.16101958 0.98199999 22766427
0.15254121 0.16101958 0.98199999 21580863
0.15491129 0.16151148 0.98499995 20589091
0.15633778 0.16101958 0.98199999 19603489
0.15823609 0.16101958 0.98199999 2625823
0.16013438 0.16101958 0.98199999 2429728
0.16153766 0.16052765 0.97899997 2430240
0.16343015 0.16052765 0.97899997 2496287
0.16498493 0.16019972 0.977 2104094
0.16687354 0.16019972 0.977 18485796
0.16876218 0.16019972 0.977 18091051
0.17065081 0.16019972 0.977 17698623
0.17253943 0.16019972 0.977 17501779
0.17442808 0.16019972 0.977 17381982
0.19153358 0.15872398 0.96799999 22429990
0.19340479 0.15872398 0.96799999 20720922
0.19487256 0.15839604 0.96599996 19015456
0.19673993 0.15839604 0.96599996 19146279
0.1986073 0.15839604 0.96599996 19342888
0.20047466 0.15839604 0.96599996 2762794
0.20171364 0.15790412 0.963 2958378
0.20357519 0.15790412 0.963 2892842
0.20543678 0.15790412 0.963 2892844
0.20729834 0.15790412 0.963 2893357
0.2091599 0.15790412 0.963 2958894
0.21102147 0.15790412 0.963 2959407
0.21221985 0.1574122 0.95999998 3024173
0.21407561 0.1574122 0.95999998 3286316
0.21593137 0.1574122 0.95999998 3613996
0.21778715 0.1574122 0.95999998 3351852
0.21918532 0.15708427 0.958 3090221
0.22103722 0.15708427 0.958 3090990
0.22219114 0.15659234 0.95499998 3156269
0.22403724 0.15659234 0.95499998 3090732
0.22588335 0.15659234 0.95499998 3024940
0.22772945 0.15659234 0.95499998 3025707
0.22909476 0.15626441 0.95299995 3088427
0.23093699 0.15626441 0.95299995 2498347
0.23277922 0.15626441 0.95299995 18682174
0.23462145 0.15626441 0.95299995 17826642
0.23571932 0.15577251 0.94999999 16976237
0.23755576 0.15577251 0.94999999 16908681
0.23939219 0.15577251 0.94999999 16850316
0.24122864 0.15577251 0.94999999 19146128
0.24306506 0.15577251 0.94999999 21456553
0.24407658 0.15524779 0.94679999 23500995
0.24590683 0.15524779 0.94679999 25605598
0.24773708 0.15524779 0.94679999 28174842
0.24904013 0.15491985 0.94479996 30797308
0.25086653 0.15491985 0.94479996 31850238
0.25269291 0.15491985 0.94479996 32964349
0.25451928 0.15491985 0.94479996 33160957
0.25634566 0.15491985 0.94479996 33357564
0.25817204 0.15491985 0.94479996 33292027
0.25917289 0.15442793 0.9418 33292025
0.26099348 0.15442793 0.9418 32177912
0.26281404 0.15442793 0.9418 31058935
0.26463464 0.15442793 0.9418 29810166
0.26588935 0.15409999 0.93979996 28634359
0.2677061 0.15409999 0.93979996 28370680
0.26866245 0.15360808 0.9368 28174328
0.27047336 0.15360808 0.9368 29485817
0.27228427 0.15360808 0.9368 30863864
0.27351001 0.15328014 0.93479997 32112375
0.27531707 0.15328014 0.93479997 33357561
0.27712411 0.15328014 0.93479997 33423100
0.2789312 0.15328014 0.93479997 33488637
0.28073823 0.15328014 0.93479997 33488638
0.2816385 0.15278822 0.93179995 33488638
0.28343979 0.15278822 0.93179995 33488638
0.28524104 0.15278822 0.93179995 33488638
0.28704229 0.15278822 0.93179995 16711422
0.28884354 0.15278822 0.93179995 16711422
0.29064479 0.15278822 0.93179995 16711422
0.29181835 0.15246028 0.92979997 16711422
0.2926684 0.15196836 0.92679995 16711422
0.29445997 0.15196836 0.92679995 16711422
0.29561228 0.15164042 0.92479998 16711422
0.2974 0.15164042 0.92479998 16711422
0.29918769 0.15164042 0.92479998 16711422
0.30097544 0.15164042 0.92479998 16711422
0.30276316 0.15164042 0.92479998 16711422
0.30455086 0.15164042 0.92479998 16711422
0.30633861 0.15164042 0.92479998 16711422
0.30712679 0.1511485 0.92179996 16711422
0.3089087 0.1511485 0.92179996 16711422
0.31001654 0.15082058 0.91979998 16711422
0.31179458 0.15082058 0.91979998 16711422
0.3128908 0.15049262 0.91779995 16711422
0.31466499 0.15049262 0.91779995 16711422
0.31540486 0.15000072 0.91479999 16711422
0.31717324 0.15000072 0.91479999 16711422
0.31894165 0.15000072 0.91479999 16711422
0.32071003 0.15000072 0.91479999 16711422
0.32247841 0.15000072 0.91479999 16711422
0.32424682 0.15000072 0.91479999 16711422
0.3260152 0.15000072 0.91479999 16711422
0.32706696 0.14967278 0.91279995 16711422
0.32883149 0.14967278 0.91279995 16711422
0.330596 0.14967278 0.91279995 16711422
0.33236054 0.14967278 0.91279995 16711422
0.33412507 0.14967278 0.91279995 16711422
0.33471206 0.14914806 0.90959996 16711422
0.3364704 0.14914806 0.90959996 16711422
0.33748505 0.14882012 0.90759999 16711422
0.33923954 0.14882012 0.90759999 16711422
0.34024256 0.14849217 0.90559995 16711422
0.34199315 0.14849217 0.90559995 16711422
0.3437438 0.14849217 0.90559995 16711421
0.34549439 0.14849217 0.90559995 16383741
0.34724498 0.14849217 0.90559995 16120828
0.34783947 0.14800027 0.90259999 16120827
0.34958431 0.14800027 0.90259999 16186363
0.35132912 0.14800027 0.90259999 16186363
0.35307392 0.14800027 0.90259999 16186363
0.3548187 0.14800027 0.90259999 16186363
0.35577342 0.14767233 0.90059996 16186363
0.35751438 0.14767233 0.90059996 16252156
0.35845751 0.14734438 0.89859998 16317691
0.36019459 0.14734438 0.89859998 16317691
0.36072335 0.14685246 0.89559996 16317691
0.36245462 0.14685246 0.89559996 16383228
0.3641859 0.14685246 0.89559996 16448764
0.36591718 0.14685246 0.89559996 16448764
0.36764845 0.14685246 0.89559996 16448764
0.36855483 0.14652453 0.89359999 16448764
0.37028226 0.14652453 0.89359999 16448764
0.37200966 0.14652453 0.89359999 16449020
0.37373707 0.14652453 0.89359999 16449020
0.37546447 0.14652453 0.89359999 16449020
0.37508139 0.14570467 0.88859999 16449020
0.37679911 0.14570467 0.88859999 16449020
0.37766489 0.14537673 0.88659996 16448764
0.3793788 0.14537673 0.88659996 16448764
0.38109267 0.14537673 0.88659996 16448764
0.38194302 0.1450488 0.88459998 16449020
0.14539084 0.16341867 0.98499995 23812715
0.14684631 0.16292094 0.98199999 23024489
0.14829019 0.16242322 0.97899997 22302306
0.1506429 0.16292094 0.98199999 21645404
0.15254121 0.16292094 0.98199999 21055035
0.15443949 0.16292094 0.98199999 20325915
0.15633778 0.16292094 0.98199999 19601682
0.15823609 0.16292094 0.98199999 2627337
0.16013438 0.16292094 0.98199999 2495761
0.16153766 0.16242322 0.97899997 2495770
0.16343015 0.16242322 0.97899997 2495774
0.16532266 0.16242322 0.97899997 2365218
0.16687354 0.1620914 0.977 2234919
0.16876218 0.1620914 0.977 1972781
0.17065081 0.1620914 0.977 18553640
0.17253943 0.1620914 0.977 18485795
0.17442808 0.1620914 0.977 18416422
0.19153358 0.16059825 0.96799999 24536115
0.1930052 0.16026641 0.96599996 23022337
0.19487256 0.16026641 0.96599996 21441297
0.19673993 0.16026641 0.96599996 20260642
0.1986073 0.16026641 0.96599996 19078182
0.20047466 0.16026641 0.96599996 19275306
0.20234202 0.16026641 0.96599996 2761256
0.20357519 0.15976872 0.963 2957863
0.20543678 0.15976872 0.963 3154986
0.20729834 0.15976872 0.963 3089453
0.2091599 0.15976872 0.963 3089711
0.21102147 0.15976872 0.963 3023665
0.21221985 0.15927097 0.95999998 3022895
0.21407561 0.15927097 0.95999998 3089709
0.21593137 0.15927097 0.95999998 3219757
0.21778715 0.15927097 0.95999998 3089709
0.21918532 0.15893918 0.958 3024940
0.22103722 0.15893918 0.958 3024940
0.22219114 0.15844144 0.95499998 3090734
0.22403724 0.15844144 0.95499998 3024688
0.22588335 0.15844144 0.95499998 3024692
0.22725251 0.15810964 0.95299995 3090233
0.22909476 0.15810964 0.95299995 3221305
0.23093699 0.15810964 0.95299995 2827322
0.23204646 0.15761191 0.94999999 2499124
0.23388289 0.15761191 0.94999999 2103343
0.23571932 0.15761191 0.94999999 1708583
0.23755576 0.15761191 0.94999999 18353184
0.23939219 0.15761191 0.94999999 18219297
0.24122864 0.15761191 0.94999999 18940194
0.24224633 0.15708101 0.94679999 19661141
0.24407658 0.15708101 0.94679999 20457353
0.24590683 0.15708101 0.94679999 21246911
0.24773708 0.15708101 0.94679999 22507766
0.24904013 0.15674919 0.94479996 23833082
0.25086653 0.15674919 0.94479996 25740030
0.25269291 0.15674919 0.94479996 27654398
0.25451928 0.15674919 0.94479996 28834046
0.25634566 0.15674919 0.94479996 30080766
0.25817204 0.15674919 0.94479996 31325950
0.25917289 0.15625148 0.9418 32571134
0.26099348 0.15625148 0.9418 32374526
0.26281404 0.15625148 0.9418 32177916
0.26407266 0.15591966 0.93979996 31587322
0.26588935 0.15591966 0.93979996 30997495
0.2677061 0.15591966 0.93979996 30797301
0.26866245 0.15542194 0.9368 30593524
0.27133954 0.15591966 0.93979996 30662132
0.27228427 0.15542194 0.9368 30726642
0.27409521 0.15542194 0.9368 30730481
0.27590612 0.15542194 0.9368 30801141
0.27712411 0.15509011 0.93479997 30801146
0.2789312 0.15509011 0.93479997 30867196
0.28073823 0.15509011 0.93479997 31588094
0.2816385 0.15459239 0.93179995 32308990
0.28435236 0.15509011 0.93479997 32833278
0.2861594 0.15509011 0.93479997 33423102
0.28704229 0.15459239 0.93179995 33423102
0.28884354 0.15459239 0.93179995 33488638
0.29064479 0.15459239 0.93179995 33488638
0.29181835 0.15426058 0.92979997 33488638
0.2926684 0.15376286 0.92679995 16711422
0.29382455 0.15343104 0.92479998 16711422
0.29561228 0.15343104 0.92479998 16711422
0.2974 0.15343104 0.92479998 16711422
0.29918769 0.15343104 0.92479998 16711422
0.30097544 0.15343104 0.92479998 16711422
0.30276316 0.15343104 0.92479998 16711422
0.30455086 0.15343104 0.92479998 16711422
0.30633861 0.15343104 0.92479998 16711422
0.30712679 0.15293333 0.92179996 16711422
0.3089087 0.15293333 0.92179996 16711422
0.31001654 0.15260151 0.91979998 16711422
0.31179458 0.15260151 0.91979998 16711422
0.3128908 0.15226969 0.91779995 16711422
0.31466499 0.15226969 0.91779995 16711422
0.31643918 0.15226969 0.91779995 16711422
0.31717324 0.15177198 0.91479999 16711422
0.31894165 0.15177198 0.91479999 16711422
0.32071003 0.15177198 0.91479999 16711422
0.32247841 0.15177198 0.91479999 16711422
0.32424682 0.15177198 0.91479999 16711422
0.3260152 0.15177198 0.91479999 16711422
0.32778358 0.15177198 0.91479999 16711422
0.32883149 0.15144016 0.91279995 16711422
0.330596 0.15144016 0.91279995 16711422
0.33236054 0.15144016 0.91279995 16711422
0.33412507 0.15144016 0.91279995 16711422
0.33471206 0.15090926 0.90959996 16711422
0.3364704 0.15090926 0.90959996 16711422
0.33748505 0.15057744 0.90759999 16711422
0.33923954 0.15057744 0.90759999 16711422
0.34024256 0.15024562 0.90559995 16711422
0.34199315 0.15024562 0.90559995 16580350
0.3437438 0.15024562 0.90559995 16514813
0.34549439 0.15024562 0.90559995 16252156
0.34724498 0.15024562 0.90559995 15989499
0.34783947 0.14974791 0.90259999 15989754
0.34958431 0.14974791 0.90259999 16055290
0.35132912 0.14974791 0.90259999 16055290
0.35307392 0.14974791 0.90259999 16055290
0.3548187 0.14974791 0.90259999 16055290
0.35577342 0.14941609 0.90059996 16120826
0.35751438 0.14941609 0.90059996 16120827
0.35845751 0.14908428 0.89859998 16186619
0.35899207 0.14858654 0.89559996 16186363
0.36072335 0.14858654 0.89559996 16186363
0.36245462 0.14858654 0.89559996 16186364
0.3641859 0.14858654 0.89559996 16252156
0.36591718 0.14858654 0.89559996 16252156
0.36682743 0.14825475 0.89359999 16252156
0.36855483 0.14825475 0.89359999 16317692
0.37028226 0.14825475 0.89359999 16317692
0.37200966 0.14825475 0.89359999 16317692
0.37373707 0.14825475 0.89359999 16317692
0.37462413 0.14792292 0.89159995 16317692
0.37508139 0.14742519 0.88859999 16317692
0.37595102 0.14709339 0.88659996 16317692
0.37766489 0.14709339 0.88659996 16317692
0.3793788 0.14709339 0.88659996 16317692
0.38109267 0.14709339 0.88659996 16317692
0.38194302 0.14676157 0.88459998 16317692
0.14395289 0.16586295 0.98819995 5986642
0.14539084 0.16532584 0.98499995 21775439
0.14729492 0.16532584 0.98499995 21175885
0.14874461 0.16482231 0.98199999 20651589
0.1506429 0.16482231 0.98199999 20585533
0.15254121 0.16482231 0.98199999 20585518
0.15443949 0.16482231 0.98199999 20127008
0.15633778 0.16482231 0.98199999 19668506
0.15823609 0.16482231 0.98199999 2695187
0.15964517 0.16431877 0.97899997 2562582
0.16153766 0.16431877 0.97899997 2495770
0.16343015 0.16431877 0.97899997 2495773
0.16498493 0.16398309 0.977 2626849
0.16687354 0.16398309 0.977 2759204
0.16876218 0.16398309 0.977 2695463
0.17065081 0.16398309 0.977 2694688
0.17200963 0.16347957 0.97399998 2693656
0.17389245 0.16347957 0.97399998 19534625
0.19153358 0.1624725 0.96799999 26702944
0.1930052 0.16213682 0.96599996 25326153
0.19487256 0.16213682 0.96599996 23941435
0.19673993 0.16213682 0.96599996 21375789
0.1986073 0.16213682 0.96599996 18883886
0.20047466 0.16213682 0.96599996 19075887
0.20171364 0.1616333 0.963 19341356
0.20357519 0.1616333 0.963 19799593
0.20543678 0.1616333 0.963 20258347
0.20729834 0.1616333 0.963 3350574
0.20850831 0.16112974 0.95999998 3220272
0.21036409 0.16112974 0.95999998 3154225
0.21221985 0.16112974 0.95999998 3088943
0.21407561 0.16112974 0.95999998 2958638
0.21593137 0.16112974 0.95999998 2827565
0.21733342 0.16079408 0.958 2893356
0.21918532 0.16079408 0.958 3024939
0.22103722 0.16079408 0.958 3024939
0.22219114 0.16029054 0.95499998 3024683
0.22403724 0.16029054 0.95499998 3024428
0.22588335 0.16029054 0.95499998 3089969
0.22725251 0.15995485 0.95299995 3221558
0.22909476 0.15995485 0.95299995 3352374
0.23093699 0.15995485 0.95299995 3221815
0.23277922 0.15995485 0.95299995 3090740
0.23388289 0.15945132 0.94999999 3156274
0.23571932 0.15945132 0.94999999 3221804
0.23755576 0.15945132 0.94999999 3025191
0.23939219 0.15945132 0.94999999 2890027
0.24122864 0.15945132 0.94999999 2036015
0.24224633 0.15891422 0.94679999 17960004
0.24407658 0.15891422 0.94679999 17433689
0.24538736 0.15857853 0.94479996 16909425
0.24721375 0.15857853 0.94479996 16843145
0.24904013 0.15857853 0.94479996 16854928
0.25086653 0.15857853 0.94479996 19612312
0.25269291 0.15857853 0.94479996 22378680
0.25451928 0.15857853 0.94479996 24554457
0.25634566 0.15857853 0.94479996 26789867
0.25817204 0.15857853 0.94479996 29294077
0.25917289 0.158075 0.9418 31849981
0.26099348 0.158075 0.9418 32571134
0.26281404 0.158075 0.9418 33292029
0.26407266 0.15773933 0.93979996 33357564
0.26588935 0.15773933 0.93979996 33423098
0.2677061 0.15773933 0.93979996 33226489
0.26952282 0.15773933 0.93979996 33029881
0.27047336 0.1572358 0.9368 31784697
0.27228427 0.1572358 0.9368 30599415
0.27409521 0.1572358 0.9368 29412342
0.27531707 0.15690009 0.93479997 28308215
0.27712411 0.15690009 0.93479997 28233720
0.2789312 0.15690009 0.93479997 28243193
0.28073823 0.15690009 0.93479997 29684985
0.2816385 0.15639657 0.93179995 31127289
0.28343979 0.15639657 0.93179995 32243450
0.28524104 0.15639657 0.93179995 33357563
0.28704229 0.15639657 0.93179995 33423101
0.28884354 0.15639657 0.93179995 33488637
0.29064479 0.15639657 0.93179995 33488638
0.29181835 0.15606089 0.92979997 33488638
0.2926684 0.15555735 0.92679995 33488638
0.29382455 0.15522166 0.92479998 33488638
0.29561228 0.15522166 0.92479998 16711422
0.2974 0.15522166 0.92479998 16711422
0.29918769 0.15522166 0.92479998 16711422
0.30097544 0.15522166 0.92479998 16711422
0.30276316 0.15522166 0.92479998 16711422
0.30455086 0.15522166 0.92479998 16711422
0.30633861 0.15522166 0.92479998 16711422
0.30812633 0.15522166 0.92479998 16711422
0.3089087 0.15471813 0.92179996 16711422
0.31001654 0.15438245 0.91979998 16711422
0.31179458 0.15438245 0.91979998 16711422
0.3128908 0.15404676 0.91779995 16711422
0.31466499 0.15404676 0.91779995 16711422
0.31540486 0.15354323 0.91479999 16711422
0.31717324 0.15354323 0.91479999 16711422
0.31894165 0.15354323 0.91479999 16711422
0.32071003 0.15354323 0.91479999 16711422
0.32247841 0.15354323 0.91479999 16711422
0.32424682 0.15354323 0.91479999 16711422
0.3260152 0.15354323 0.91479999 16711422
0.32706696 0.15320754 0.91279995 16711422
0.32883149 0.15320754 0.91279995 16711422
0.330596 0.15320754 0.91279995 16711422
0.33236054 0.15320754 0.91279995 16711422
0.33412507 0.15320754 0.91279995 16711422
0.33471206 0.15267044 0.90959996 16711422
0.33573058 0.15233476 0.90759999 16711422
0.33748505 0.15233476 0.90759999 16711422
0.33923954 0.15233476 0.90759999 16711422
0.34024256 0.15199906 0.90559995 16711422
0.34199315 0.15199906 0.90559995 16514814
0.3437438 0.15199906 0.90559995 16383228
0.34549439 0.15199906 0.90559995 16120827
0.34724498 0.15199906 0.90559995 15858426
0.34783947 0.15149555 0.90259999 15858681
0.34958431 0.15149555 0.90259999 15924217
0.35132912 0.15149555 0.90259999 15924218
0.35307392 0.15149555 0.90259999 15924218
0.3548187 0.15149555 0.90259999 15989754
0.35577342 0.15115985 0.90059996 16055290
0.35751438 0.15115985 0.90059996 16055291
0.35845751 0.15082416 0.89859998 16120827
0.35899207 0.15032062 0.89559996 16055291
0.36072335 0.15032062 0.89559996 16055291
0.36245462 0.15032062 0.89559996 16055291
0.3641859 0.15032062 0.89559996 16120827
0.36591718 0.15032062 0.89559996 16120827
0.36682743 0.14998496 0.89359999 16120827
0.36855483 0.14998496 0.89359999 16186363
0.37028226 0.14998496 0.89359999 16251899
0.37200966 0.14998496 0.89359999 16186363
0.37373707 0.14998496 0.89359999 16186363
0.37462413 0.14964926 0.89159995 16186363
0.37508139 0.14914574 0.88859999 16251899
0.37595102 0.14881003 0.88659996 16186363
0.37766489 0.14881003 0.88659996 16186363
0.3793788 0.14881003 0.88659996 16186363
0.38109267 0.14881003 0.88659996 16186363
0.38280654 0.14881003 0.88659996 16252155
0.14395289 0.16777632 0.98819995 22560055
0.14586316 0.16777632 0.98819995 21903412
0.14729492 0.16723302 0.98499995 21243698
0.14874461 0.1667237 0.98199999 20651560
0.1506429 0.1667237 0.98199999 20192542
0.15254121 0.1667237 0.98199999 19798562
0.15443949 0.1667237 0.98199999 2957094
0.15633778 0.1667237 0.98199999 2892834
0.15823609 0.1667237 0.98199999 2826526
0.15964517 0.16621435 0.97899997 2760988
0.16153766 0.16621435 0.97899997 2759962
0.16309628 0.16587479 0.977 2759453
0.16498493 0.16587479 0.977 2890529
0.16687354 0.16587479 0.977 3021601
0.16824397 0.16536544 0.97399998 2957602
0.17065081 0.16587479 0.977 2893080
0.17253943 0.16587479 0.977 2891790
0.17442808 0.16587479 0.977 2957085
0.19153358 0.16434677 0.96799999 22574733
0.1930052 0.1640072 0.96599996 23229841
0.19487256 0.1640072 0.96599996 23887205
0.19673993 0.1640072 0.96599996 22959673
0.1986073 0.1640072 0.96599996 22036790
0.20047466 0.1640072 0.96599996 21771828
0.20171364 0.16349787 0.963 21506095
0.20357519 0.16349787 0.963 21046315
0.20543678 0.16349787 0.963 20650285
0.20729834 0.16349787 0.963 20258096
0.20850831 0.16298854 0.95999998 19801649
0.21036409 0.16298854 0.95999998 19800370
0.21221985 0.16298854 0.95999998 3089200
0.21407561 0.16298854 0.95999998 2958639
0.21593137 0.16298854 0.95999998 2894125
0.21733342 0.16264898 0.958 2959659
0.21918532 0.16264898 0.958 3025194
0.22103722 0.16264898 0.958 2959146
0.22219114 0.16213964 0.95499998 2959145
0.22403724 0.16213964 0.95499998 2958888
0.22588335 0.16213964 0.95499998 3023917
0.22725251 0.16180007 0.95299995 3090227
0.22909476 0.16180007 0.95299995 3155507
0.23093699 0.16180007 0.95299995 3090228
0.23277922 0.16180007 0.95299995 3090228
0.23462145 0.16180007 0.95299995 3090485
0.23571932 0.16129074 0.94999999 3156017
0.23755576 0.16129074 0.94999999 3090478
0.23939219 0.16129074 0.94999999 3024949
0.24122864 0.16129074 0.94999999 2434877
0.24224633 0.16074744 0.94679999 1845043
0.24407658 0.16074744 0.94679999 1710378
0.24538736 0.16040787 0.94479996 1576227
0.24721375 0.16040787 0.94479996 18352668
0.24904013 0.16040787 0.94479996 18350375
0.25086653 0.16040787 0.94479996 19202354
0.25189057 0.15989855 0.9418 20054387
0.2537111 0.15989855 0.9418 20921781
0.2555317 0.15989855 0.9418 21847769
0.25735229 0.15989855 0.9418 23103485
0.25917289 0.15989855 0.9418 24360701
0.26099348 0.15989855 0.9418 26332414
0.26281404 0.15989855 0.9418 28376830
0.26407266 0.15955898 0.93979996 29556478
0.26588935 0.15955898 0.93979996 30736126
0.2677061 0.15955898 0.93979996 31588094
0.26866245 0.15904965 0.9368 32440062
0.27047336 0.15904965 0.9368 32177918
0.27228427 0.15904965 0.9368 31915772
0.27409521 0.15904965 0.9368 31325179
0.27531707 0.15871008 0.93479997 30735353
0.27712411 0.15871008 0.93479997 30668535
0.2789312 0.15871008 0.93479997 30668278
0.28073823 0.15871008 0.93479997 30668021
0.2816385 0.15820074 0.93179995 30728181
0.28343979 0.15820074 0.93179995 30600438
0.28524104 0.15820074 0.93179995 30473977
0.28704229 0.15820074 0.93179995 30801660
0.28884354 0.15820074 0.93179995 31129341
0.29064479 0.15820074 0.93179995 31784702
0.29181835 0.15786117 0.92979997 32374526
0.2926684 0.15735185 0.92679995 32898814
0.29382455 0.15701228 0.92479998 33488638
0.29561228 0.15701228 0.92479998 33488638
0.2974 0.15701228 0.92479998 33488638
0.29918769 0.15701228 0.92479998 16711422
0.30097544 0.15701228 0.92479998 16711422
0.30276316 0.15701228 0.92479998 16711422
0.30455086 0.15701228 0.92479998 16711422
0.30633861 0.15701228 0.92479998 16711422
0.30712679 0.15650295 0.92179996 16711422
0.3089087 0.15650295 0.92179996 16711422
0.31001654 0.15616339 0.91979998 16711422
0.31179458 0.15616339 0.91979998 16711422
0.3128908 0.15582383 0.91779995 16711422
0.31466499 0.15582383 0.91779995 16711422
0.31540486 0.15531449 0.91479999 16711422
0.31717324 0.15531449 0.91479999 16711422
0.31894165 0.15531449 0.91479999 16711422
0.32071003 0.15531449 0.91479999 16711422
0.32247841 0.15531449 0.91479999 16711422
0.32424682 0.15531449 0.91479999 16711422
0.3260152 0.15531449 0.91479999 16711422
0.32778358 0.15531449 0.91479999 16711422
0.32883149 0.15497492 0.91279995 16711422
0.330596 0.15497492 0.91279995 16711422
0.33236054 0.15497492 0.91279995 16711422
0.33295372 0.15443163 0.90959996 16711422
0.33471206 0.15443163 0.90959996 16711422
0.33573058 0.15409207 0.90759999 16711422
0.33748505 0.15409207 0.90759999 16711422
0.33849198 0.15375251 0.90559995 16711422
0.34024256 0.15375251 0.90559995 16711422
0.34199315 0.15375251 0.90559995 16514814
0.3437438 0.15375251 0.90559995 16317692
0.34549439 0.15375251 0.90559995 15989754
0.34724498 0.15375251 0.90559995 15661817
0.34783947 0.15324317 0.90259999 15727353
0.34958431 0.15324317 0.90259999 15727609
0.35132912 0.15324317 0.90259999 15727610
0.35307392 0.15324317 0.90259999 15793146
0.3548187 0.15324317 0.90259999 15858682
0.35577342 0.1529036 0.90059996 15924218
0.35751438 0.1529036 0.90059996 15924219
0.35845751 0.15256405 0.89859998 15989755
0.35899207 0.15205473 0.89559996 15924219
0.36072335 0.15205473 0.89559996 15924219
0.36245462 0.15205473 0.89559996 15924219
0.3641859 0.15205473 0.89559996 15989754
0.36510003 0.15171514 0.89359999 15989754
0.36682743 0.15171514 0.89359999 15989754
0.36855483 0.15171514 0.89359999 16055290
0.37028226 0.15171514 0.89359999 16055290
0.37200966 0.15171514 0.89359999 16055290
0.37373707 0.15171514 0.89359999 16055290
0.37462413 0.15137559 0.89159995 16120826
0.37508139 0.15086627 0.88859999 16120826
0.37595102 0.1505267 0.88659996 16120827
0.37766489 0.1505267 0.88659996 16120827
0.3793788 0.1505267 0.88659996 16120827
0.38109267 0.1505267 0.88659996 16120827
0.38280654 0.1505267 0.88659996 16186363
0.14395289 0.16968969 0.98819995 22358852
0.14539084 0.1691402 0.98499995 22031420
0.14684631 0.16862506 0.98199999 21310516
0.14874461 0.16862506 0.98199999 3876653
0.1506429 0.16862506 0.98199999 3089959
0.15254121 0.16862506 0.98199999 2302503
0.15443949 0.16862506 0.98199999 2564902
0.15633778 0.16862506 0.98199999 2892324
0.15823609 0.16862506 0.98199999 2957602
0.15964517 0.16810991 0.97899997 3023137
0.16153766 0.16810991 0.97899997 3023137
0.16309628 0.16776648 0.977 3022883
0.16498493 0.16776648 0.977 3153957
0.16687354 0.16776648 0.977 3285029
0.16876218 0.16776648 0.977 3154470
0.17065081 0.16776648 0.977 3089441
0.17253943 0.16776648 0.977 3089436
0.17442808 0.16776648 0.977 3154724
0.1930052 0.1658776 0.96599996 21190479
0.19487256 0.1658776 0.96599996 23879250
0.19673993 0.1658776 0.96599996 24538965
0.1986073 0.1658776 0.96599996 25192792
0.20047466 0.1658776 0.96599996 24406876
0.20171364 0.16536246 0.963 23679315
0.20357519 0.16536246 0.963 22363722
0.20543678 0.16536246 0.963 21114680
0.20729834 0.16536246 0.963 20388135
0.20850831 0.16484731 0.95999998 19669805
