# .PCD v0.7 - Point Cloud Data file format
VERSION 0.7
FIELDS x y z rgba
SIZE 4 4 4 4
TYPE F F F U
COUNT 1 1 1 1
WIDTH 1125
HEIGHT 1
VIEWPOINT 0 0 0 1 0 0 0
POINTS 1125
DATA ascii
-0.46698552 0.2528584 0.90259999 2761517
-0.46420979 0.25229812 0.90059996 2893099
-0.46349594 0.2528584 0.90259999 3024172
-0.46072793 0.25229812 0.90059996 3090222
-0.458987 0.25229812 0.90059996 3155760
-0.45623064 0.25173783 0.89859998 3353907
-0.45449355 0.25173783 0.89859998 3615546
-0.45275646 0.25173783 0.89859998 3681089
-0.45202321 0.25229812 0.90059996 3811385
-0.45028231 0.25229812 0.90059996 3548208
-0.44754526 0.25173783 0.89859998 3285551
-0.4458082 0.25173783 0.89859998 3022381
-0.44407111 0.25173783 0.89859998 2760745
-0.44331855 0.25229812 0.90059996 2827045
-0.44157758 0.25229812 0.90059996 2957865
-0.43983662 0.25229812 0.90059996 3154478
-0.43809569 0.25229812 0.90059996 20127795
-0.43635476 0.25229812 0.90059996 20521016
-0.43461382 0.25229812 0.90059996 20916534
-0.43287286 0.25229812 0.90059996 21445428
-0.43113196 0.25229812 0.90059996 22037065
-0.429391 0.25229812 0.90059996 23093853
-0.42670038 0.25173783 0.89859998 24204882
-0.42354453 0.25089738 0.89559996 22564168
-0.42181325 0.25089738 0.89559996 20918079
-0.42148915 0.25173783 0.89859998 20517686
-0.41975206 0.25173783 0.89859998 20126769
-0.41801497 0.25173783 0.89859998 19864364
-0.41627792 0.25173783 0.89859998 19668789
-0.41454083 0.25173783 0.89859998 3089981
-0.41280374 0.25173783 0.89859998 3286583
-0.41198158 0.25229812 0.90059996 3484209
-0.41024065 0.25229812 0.90059996 3679799
-0.40849969 0.25229812 0.90059996 3352126
-0.40766206 0.2528584 0.90259999 3089206
-0.40097034 0.2497768 0.89159995 2826799
-0.39924678 0.2497768 0.89159995 2564142
-0.39752325 0.2497768 0.89159995 2760238
-0.39757538 0.25089738 0.89559996 3023414
-0.3958441 0.25089738 0.89559996 3090239
-0.39411283 0.25089738 0.89559996 3222338
-0.39150533 0.25033709 0.89359999 3354949
-0.38977793 0.25033709 0.89359999 3485514
-0.38805053 0.25033709 0.89359999 3355216
-0.38632309 0.25033709 0.89359999 3288380
-0.38545647 0.25089738 0.89559996 3222057
-0.38201135 0.2497768 0.89159995 3221294
-0.38028783 0.2497768 0.89159995 3221298
-0.37856427 0.2497768 0.89159995 3285553
-0.37768605 0.25033709 0.89359999 3286319
-0.37511718 0.2497768 0.89159995 3286316
-0.37129971 0.24837609 0.88659996 3286313
-0.36958581 0.24837609 0.88659996 3351853
-0.36787194 0.24837609 0.88659996 3286321
-0.36615807 0.24837609 0.88659996 3285555
-0.3644442 0.24837609 0.88659996 3220021
-0.36354855 0.24893637 0.88859999 3220527
-0.36101642 0.24837609 0.88659996 3220778
-0.36011308 0.24893637 0.88859999 3220784
-0.35960531 0.2497768 0.89159995 3549239
-0.35788175 0.2497768 0.89159995 3876149
-0.3561582 0.2497768 0.89159995 3613747
-0.35443467 0.2497768 0.89159995 3351347
-0.35271111 0.2497768 0.89159995 3614004
-0.35098758 0.2497768 0.89159995 3940660
-0.34808889 0.24893637 0.88859999 3679028
-0.34637111 0.24893637 0.88859999 3416627
-0.34465337 0.24893637 0.88859999 3221041
-0.34293565 0.24893637 0.88859999 3089462
-0.34121791 0.24893637 0.88859999 3156539
-0.33950013 0.24893637 0.88859999 3222069
-0.33892277 0.2497768 0.89159995 3222063
-0.33606467 0.24893637 0.88859999 3287343
-0.33547568 0.2497768 0.89159995 3288367
-0.33375213 0.2497768 0.89159995 3352882
-0.33202863 0.2497768 0.89159995 3483189
-0.33030507 0.2497768 0.89159995 3679801
-0.32858151 0.2497768 0.89159995 3417662
-0.32685798 0.2497768 0.89159995 3221303
-0.32185248 0.2472555 0.88259995 3222064
-0.3208718 0.24781579 0.88459998 3221813
-0.31916177 0.24781579 0.88459998 3352891
-0.31745178 0.24781579 0.88459998 3549495
-0.31502786 0.2472555 0.88259995 3680820
-0.31332171 0.2472555 0.88259995 3877172
-0.31161559 0.2472555 0.88259995 3680564
-0.30990943 0.2472555 0.88259995 3483958
-0.30820328 0.2472555 0.88259995 3483961
-0.30649716 0.2472555 0.88259995 3483702
-0.304791 0.2472555 0.88259995 3483699
-0.30308485 0.2472555 0.88259995 3483701
-0.30137873 0.2472555 0.88259995 3483960
-0.29967257 0.2472555 0.88259995 3483187
-0.29864162 0.24781579 0.88459998 3286319
-0.29693162 0.24781579 0.88459998 3089710
-0.29522163 0.24781579 0.88459998 3024428
-0.2935116 0.24781579 0.88459998 2957610
-0.29180157 0.24781579 0.88459998 2826537
-0.29009157 0.24781579 0.88459998 2694179
-0.28838155 0.24781579 0.88459998 2692893
-0.28667155 0.24781579 0.88459998 2759456
-0.28496155 0.24781579 0.88459998 2891555
-0.28325152 0.24781579 0.88459998 3022377
-0.28154153 0.24781579 0.88459998 2956846
-0.2798315 0.24781579 0.88459998 2956332
-0.27749267 0.2472555 0.88259995 2890794
-0.27578652 0.2472555 0.88259995 2825002
-0.2740804 0.2472555 0.88259995 2693929
-0.27237424 0.2472555 0.88259995 2562855
-0.27066809 0.2472555 0.88259995 2627877
-0.26896197 0.2472555 0.88259995 2758941
-0.26725578 0.2472555 0.88259995 2628118
-0.26554963 0.2472555 0.88259995 2497570
-0.26384351 0.2472555 0.88259995 2694703
-0.26213735 0.2472555 0.88259995 2890545
-0.25954601 0.24641508 0.87959999 2694196
-0.25784567 0.24641508 0.87959999 2563116
-0.25614533 0.24641508 0.87959999 2366756
-0.25444496 0.24641508 0.87959999 2235683
-0.25274464 0.24641508 0.87959999 2497826
-0.25047344 0.24585478 0.87759995 2759198
-0.24877699 0.24585478 0.87759995 2692378
-0.2476436 0.24641508 0.87959999 2627621
-0.24594325 0.24641508 0.87959999 2693936
-0.24368753 0.24585478 0.87759995 2758445
-0.24199106 0.24585478 0.87759995 2561322
-0.24029458 0.24585478 0.87759995 2364713
-0.23859809 0.24585478 0.87759995 2364201
-0.23690161 0.24585478 0.87759995 2363681
-0.23520513 0.24585478 0.87759995 2297369
-0.23350866 0.24585478 0.87759995 2231840
-0.23181218 0.24585478 0.87759995 1773095
-0.2295913 0.2452945 0.87559998 1380393
-0.22789867 0.2452945 0.87559998 1643051
-0.22620605 0.2452945 0.87559998 1971489
-0.22451344 0.2452945 0.87559998 2299415
-0.22282083 0.2452945 0.87559998 2693404
-0.22112821 0.2452945 0.87559998 2431521
-0.2194356 0.2452945 0.87559998 2234910
-0.21774298 0.2452945 0.87559998 2038300
-0.21555689 0.24473423 0.87360001 1907229
-0.21386814 0.24473423 0.87360001 1973023
-0.21217939 0.24473423 0.87360001 2103066
-0.21049066 0.24473423 0.87360001 2102038
-0.2088019 0.24473423 0.87360001 2102046
-0.20711316 0.24473423 0.87360001 2036519
-0.2054244 0.24473423 0.87360001 1971494
-0.20373566 0.24473423 0.87360001 1709349
-0.2020469 0.24473423 0.87360001 1447205
-0.20035817 0.24473423 0.87360001 1774885
-0.1986694 0.24473423 0.87360001 2103072
-0.1964846 0.2441179 0.8714 2038044
-0.19480011 0.2441179 0.8714 2037785
-0.19360317 0.24473423 0.87360001 1972246
-0.19143112 0.2441179 0.8714 1971484
-0.18974662 0.2441179 0.8714 2167074
-0.18806213 0.2441179 0.8714 2363940
-0.18637764 0.2441179 0.8714 2430246
-0.18426923 0.2435576 0.86939996 2561320
-0.18258861 0.2435576 0.86939996 2561322
-0.18028373 0.24271718 0.8664 2627622
-0.17922735 0.2435576 0.86939996 2431522
-0.17754672 0.2435576 0.86939996 2235174
-0.17525925 0.24271718 0.8664 2497579
-0.17358442 0.24271718 0.8664 2825261
-0.17190957 0.24271718 0.8664 2956847
-0.17023475 0.24271718 0.8664 3088942
-0.16855992 0.24271718 0.8664 3023406
-0.16688509 0.24271718 0.8664 2957870
-0.16521026 0.24271718 0.8664 3088942
-0.16003245 0.25033709 0.89359999 22302775
-0.15830505 0.25033709 0.89359999 23744348
-0.49982342 0.25804743 0.91479999 19865390
-0.49805498 0.25804743 0.91479999 3022635
-0.49520162 0.25748324 0.91279995 2956840
-0.49170724 0.25658062 0.90959996 2891307
-0.48994887 0.25658062 0.90959996 3023406
-0.48711714 0.25601643 0.90759999 3154480
-0.4842931 0.25545228 0.90559995 3023411
-0.48254248 0.25545228 0.90559995 2827312
-0.48185375 0.25601643 0.90759999 2892845
-0.47904131 0.25545228 0.90559995 2958897
-0.4783448 0.25601643 0.90759999 3024437
-0.47554007 0.25545228 0.90559995 3155506
-0.47378945 0.25545228 0.90559995 3023663
-0.47203887 0.25545228 0.90559995 2957358
-0.46873033 0.25460604 0.90259999 2891821
-0.46595076 0.25404185 0.90059996 2827053
-0.46420979 0.25404185 0.90059996 2893101
-0.46246889 0.25404185 0.90059996 2959149
-0.46072793 0.25404185 0.90059996 3024686
-0.458987 0.25404185 0.90059996 3090480
-0.45724604 0.25404185 0.90059996 3222322
-0.45449355 0.25347769 0.89859998 3419966
-0.45275646 0.25347769 0.89859998 3747658
-0.45101941 0.25347769 0.89859998 4141630
-0.44928235 0.25347769 0.89859998 3877682
-0.44605109 0.25263146 0.89559996 3548720
-0.4458082 0.25347769 0.89859998 3220526
-0.44407111 0.25347769 0.89859998 2892838
-0.44331855 0.25404185 0.90059996 2827039
-0.44157758 0.25404185 0.90059996 2826790
-0.43983662 0.25404185 0.90059996 3023149
-0.43809569 0.25404185 0.90059996 19996977
-0.43635476 0.25404185 0.90059996 20193334
-0.43461382 0.25404185 0.90059996 20454448
-0.43287286 0.25404185 0.90059996 20851499
-0.43113196 0.25404185 0.90059996 21314890
-0.429391 0.25404185 0.90059996 22236009
-0.42670038 0.25347769 0.89859998 23158364
-0.42354453 0.25263146 0.89559996 22301775
-0.42181325 0.25263146 0.89559996 21514563
-0.42008197 0.25263146 0.89559996 20984120
-0.4183507 0.25263146 0.89559996 20454706
-0.41661942 0.25263146 0.89559996 20126253
-0.41627792 0.25347769 0.89859998 19732783
-0.4131569 0.25263146 0.89559996 3087665
-0.41142562 0.25263146 0.89559996 3219506
-0.41106668 0.25347769 0.89859998 3417396
-0.40932962 0.25347769 0.89859998 3614527
-0.40759256 0.25347769 0.89859998 3679818
-0.40675879 0.25404185 0.90059996 3745086
-0.40097034 0.25150314 0.89159995 3220786
-0.39924678 0.25150314 0.89159995 2762035
-0.3961857 0.25065693 0.88859999 2826804
-0.39446798 0.25065693 0.88859999 2892342
-0.39407617 0.25150314 0.89159995 3024441
-0.39235261 0.25150314 0.89159995 3155774
-0.39062908 0.25150314 0.89159995 3287875
-0.38890553 0.25150314 0.89159995 3419983
-0.387182 0.25150314 0.89159995 3420252
-0.38632309 0.2520673 0.89359999 3486285
-0.38373488 0.25150314 0.89159995 3550270
-0.38201135 0.25150314 0.89159995 3680827
-0.37900826 0.25065693 0.88859999 3548472
-0.37729052 0.25065693 0.88859999 3416629
-0.37684074 0.25150314 0.89159995 3285554
-0.37301359 0.25009274 0.88659996 3220018
-0.37046212 0.24952859 0.88459998 3285554
-0.36875212 0.24952859 0.88459998 3351091
-0.36704209 0.24952859 0.88459998 3417141
-0.3653321 0.24952859 0.88459998 3482425
-0.36362207 0.24952859 0.88459998 3352125
-0.36273029 0.25009274 0.88659996 3287605
-0.36020204 0.24952859 0.88459998 3156013
-0.35930255 0.25009274 0.88659996 3090231
-0.35839534 0.25065693 0.88859999 3286850
-0.35788175 0.25150314 0.89159995 3483453
-0.35495985 0.25065693 0.88859999 3286072
-0.35324213 0.25065693 0.88859999 3154487
-0.35152435 0.25065693 0.88859999 3351094
-0.34980661 0.25065693 0.88859999 3611190
-0.34808889 0.25065693 0.88859999 3415863
-0.34637111 0.25065693 0.88859999 3285557
-0.34465337 0.25065693 0.88859999 3220276
-0.34293565 0.25065693 0.88859999 3155002
-0.34121791 0.25065693 0.88859999 3220545
-0.338736 0.25009274 0.88659996 3351865
-0.33778241 0.25065693 0.88859999 3286577
-0.33606467 0.25065693 0.88859999 3221806
-0.33547568 0.25150314 0.89159995 3156012
-0.33375213 0.25150314 0.89159995 3155760
-0.33091143 0.25065693 0.88859999 3286581
-0.32919371 0.25065693 0.88859999 3416630
-0.32673886 0.25009274 0.88659996 3285559
-0.3242918 0.24952859 0.88459998 3089459
-0.32185248 0.24896441 0.88259995 3089455
-0.32014632 0.24896441 0.88259995 3155249
-0.31844017 0.24896441 0.88259995 3220275
-0.31673405 0.24896441 0.88259995 3351091
-0.31502786 0.24896441 0.88259995 3416627
-0.31332171 0.24896441 0.88259995 3547699
-0.31161559 0.24896441 0.88259995 3351091
-0.30990943 0.24896441 0.88259995 3220018
-0.30820328 0.24896441 0.88259995 3088946
-0.30649716 0.24896441 0.88259995 3023408
-0.304791 0.24896441 0.88259995 3088686
-0.30308485 0.24896441 0.88259995 3153967
-0.30137873 0.24896441 0.88259995 3153712
-0.29967257 0.24896441 0.88259995 3153712
-0.29864162 0.24952859 0.88459998 2826288
-0.29693162 0.24952859 0.88459998 2499115
-0.29522163 0.24952859 0.88459998 2629927
-0.2935116 0.24952859 0.88459998 2695463
-0.29180157 0.24952859 0.88459998 2628647
-0.29009157 0.24952859 0.88459998 2561309
-0.28838155 0.24952859 0.88459998 2627092
-0.28667155 0.24952859 0.88459998 2693145
-0.28496155 0.24952859 0.88459998 2627614
-0.28325152 0.24952859 0.88459998 2562084
-0.28154153 0.24952859 0.88459998 2627114
-0.2798315 0.24952859 0.88459998 2757416
-0.27749267 0.24896441 0.88259995 2496295
-0.27578652 0.24896441 0.88259995 2234919
-0.2740804 0.24896441 0.88259995 2365991
-0.27237424 0.24896441 0.88259995 2562850
-0.27066809 0.24896441 0.88259995 2627870
-0.26896197 0.24896441 0.88259995 2693394
-0.26725578 0.24896441 0.88259995 2496775
-0.26554963 0.24896441 0.88259995 2299673
-0.26384351 0.24896441 0.88259995 2497067
-0.26213735 0.24896441 0.88259995 2759470
-0.25954601 0.24811816 0.87959999 2627889
-0.25784567 0.24811816 0.87959999 2496551
-0.25556287 0.24755402 0.87759995 2432285
-0.2538664 0.24755402 0.87759995 2367007
-0.25274464 0.24811816 0.87959999 2562850
-0.25104427 0.24811816 0.87959999 2824227
-0.24877699 0.24755402 0.87759995 2758692
-0.2470805 0.24755402 0.87759995 2693165
-0.24538402 0.24755402 0.87759995 2692918
-0.24368753 0.24755402 0.87759995 2758448
-0.24199106 0.24755402 0.87759995 2627115
-0.24029458 0.24755402 0.87759995 2495785
-0.23859809 0.24755402 0.87759995 2561064
-0.23636174 0.24698985 0.87559998 2561052
-0.23466912 0.24698985 0.87559998 2494481
-0.23350866 0.24755402 0.87759995 2428188
-0.23181218 0.24755402 0.87759995 2035496
-0.2295913 0.24698985 0.87559998 1642788
-0.22789867 0.24698985 0.87559998 1774368
-0.22620605 0.24698985 0.87559998 1971474
-0.22451344 0.24698985 0.87559998 2233860
-0.22282083 0.24698985 0.87559998 2561551
-0.22112821 0.24698985 0.87559998 2431514
-0.21893439 0.2464257 0.87360001 2365461
-0.21724564 0.2464257 0.87360001 2299921
-0.21555689 0.2464257 0.87360001 2234389
-0.21332955 0.24580511 0.8714 2234394
-0.21164507 0.24580511 0.8714 2300188
-0.21049066 0.2464257 0.87360001 2298910
-0.2088019 0.2464257 0.87360001 2297891
-0.20711316 0.2464257 0.87360001 2233384
-0.2054244 0.2464257 0.87360001 2233893
-0.20373566 0.2464257 0.87360001 2168355
-0.2020469 0.2464257 0.87360001 2103075
-0.20035817 0.2464257 0.87360001 2168867
-0.1981691 0.24580511 0.8714 2301470
-0.1964846 0.24580511 0.8714 2301209
-0.19480011 0.24580511 0.8714 2301212
-0.19311561 0.24580511 0.8714 2366239
-0.19143112 0.24580511 0.8714 2431520
-0.18974662 0.24580511 0.8714 2496290
-0.18806213 0.24580511 0.8714 2561571
-0.18637764 0.24580511 0.8714 2562084
-0.18426923 0.24524096 0.86939996 2563109
-0.18258861 0.24524096 0.86939996 2628647
-0.18028373 0.24439473 0.8664 2629151
-0.17860889 0.24439473 0.8664 2563607
-0.17693408 0.24439473 0.8664 2563616
-0.17525925 0.24439473 0.8664 2760490
-0.17358442 0.24439473 0.8664 2957355
-0.17190957 0.24439473 0.8664 3022892
-0.17023475 0.24439473 0.8664 3154477
-0.16855992 0.24439473 0.8664 3089198
-0.16688509 0.24439473 0.8664 3024942
-0.16521026 0.24439473 0.8664 3089198
-0.16353543 0.24439473 0.8664 3219761
-0.15967427 0.25150314 0.89159995 22302527
-0.49982342 0.25981867 0.91479999 19931435
-0.49805498 0.25981867 0.91479999 3022629
-0.49520162 0.25925064 0.91279995 3087902
-0.49170724 0.25834179 0.90959996 3219237
-0.48994887 0.25834179 0.90959996 3220013
-0.48604369 0.25720569 0.90559995 3220018
-0.48268878 0.25635368 0.90259999 2892343
-0.48094398 0.25635368 0.90259999 2630445
-0.4791992 0.25635368 0.90259999 2827556
-0.47745436 0.25635368 0.90259999 3089714
-0.47729066 0.25720569 0.90559995 3090752
-0.47396475 0.25635368 0.90259999 3155769
-0.47221994 0.25635368 0.90259999 3155250
-0.47047517 0.25635368 0.90259999 3220015
-0.46769172 0.25578561 0.90059996 3088941
-0.46595076 0.25578561 0.90059996 2957868
-0.46420979 0.25578561 0.90059996 2958634
-0.46246889 0.25578561 0.90059996 2958379
-0.46072793 0.25578561 0.90059996 3023405
-0.4579677 0.25521761 0.89859998 3089710
-0.45724604 0.25578561 0.90059996 3156272
-0.45449355 0.25521761 0.89859998 3222328
-0.45275646 0.25521761 0.89859998 3878976
-0.44951364 0.25436553 0.89559996 4534330
-0.44778237 0.25436553 0.89559996 4206900
-0.44605109 0.25436553 0.89559996 3878194
-0.44431981 0.25436553 0.89559996 3484208
-0.44258854 0.25436553 0.89559996 3090218
-0.44233406 0.25521761 0.89859998 2893605
-0.44059697 0.25521761 0.89859998 2695722
-0.43885988 0.25521761 0.89859998 2892079
-0.43809569 0.25578561 0.90059996 3088690
-0.43635476 0.25578561 0.90059996 19931188
-0.43364865 0.25521761 0.89859998 19996211
-0.43191159 0.25521761 0.89859998 20323377
-0.43017453 0.25521761 0.89859998 20654400
-0.42843744 0.25521761 0.89859998 21376847
-0.42670038 0.25521761 0.89859998 22101578
-0.42259869 0.25379753 0.89359999 22105157
-0.42087129 0.25379753 0.89359999 22105148
-0.41914392 0.25379753 0.89359999 21450035
-0.41741648 0.25379753 0.89359999 20852018
-0.41661942 0.25436553 0.89559996 20322609
-0.41488814 0.25436553 0.89559996 19863851
-0.4131569 0.25436553 0.89559996 3151909
-0.41142562 0.25436553 0.89559996 3219243
-0.40786451 0.25322947 0.89159995 3351857
-0.40614095 0.25322947 0.89159995 3548728
-0.40441743 0.25322947 0.89159995 4008766
-0.40269387 0.25322947 0.89159995 4466487
-0.39962119 0.25237745 0.88859999 3679024
-0.39790344 0.25237745 0.88859999 2958127
-0.3961857 0.25237745 0.88859999 2892590
-0.39446798 0.25237745 0.88859999 2826801
-0.39407617 0.25322947 0.89159995 2958900
-0.38839212 0.25067332 0.88259995 3089976
-0.38931474 0.25237745 0.88859999 3221564
-0.38759696 0.25237745 0.88859999 3418694
-0.38587925 0.25237745 0.88859999 3550800
-0.38632309 0.25379753 0.89359999 3681605
-0.38244376 0.25237745 0.88859999 3943738
-0.38072601 0.25237745 0.88859999 4204086
-0.37900826 0.25237745 0.88859999 3875635
-0.37644133 0.25180939 0.88659996 3547953
-0.37684074 0.25322947 0.89159995 3351344
-0.37301359 0.25180939 0.88659996 3220016
-0.37046212 0.25124136 0.88459998 3285552
-0.36875212 0.25124136 0.88459998 3351344
-0.36704209 0.25124136 0.88459998 3483185
-0.3653321 0.25124136 0.88459998 3679284
-0.36362207 0.25124136 0.88459998 3484215
-0.36273029 0.25180939 0.88659996 3353137
-0.36020204 0.25124136 0.88459998 3157035
-0.35930255 0.25180939 0.88659996 3024690
-0.35597536 0.25067332 0.88259995 3024954
-0.35667759 0.25237745 0.88859999 3089720
-0.3541609 0.25180939 0.88659996 3023926
-0.351652 0.25124136 0.88459998 2957877
-0.35073316 0.25180939 0.88659996 3154740
-0.34901929 0.25180939 0.88659996 3349044
-0.34730539 0.25180939 0.88659996 3218996
-0.34481195 0.25124136 0.88459998 3153458
-0.34465337 0.25237745 0.88859999 3153968
-0.34293565 0.25237745 0.88859999 3219508
-0.34121791 0.25237745 0.88859999 3351097
-0.338736 0.25180939 0.88659996 3547699
-0.33702213 0.25180939 0.88659996 3351342
-0.33606467 0.25237745 0.88859999 3154733
-0.33434692 0.25237745 0.88859999 3023660
-0.33262917 0.25237745 0.88859999 2958383
-0.33091143 0.25237745 0.88859999 3089970
-0.32919371 0.25237745 0.88859999 3219505
-0.32673886 0.25180939 0.88659996 3088177
-0.3242918 0.25124136 0.88459998 3022894
-0.3225818 0.25124136 0.88459998 3023403
-0.32014632 0.25067332 0.88259995 3088429
-0.31844017 0.25067332 0.88259995 3153967
-0.31673405 0.25067332 0.88259995 3218735
-0.31502786 0.25067332 0.88259995 3218223
-0.31332171 0.25067332 0.88259995 3218223
-0.31161559 0.25067332 0.88259995 3087663
-0.30990943 0.25067332 0.88259995 2956591
-0.30820328 0.25067332 0.88259995 2759983
-0.30649716 0.25067332 0.88259995 2628909
-0.304791 0.25067332 0.88259995 2694699
-0.30308485 0.25067332 0.88259995 2825005
-0.30137873 0.25067332 0.88259995 2824751
-0.29967257 0.25067332 0.88259995 2824749
-0.29864162 0.25124136 0.88459998 2366251
-0.29693162 0.25124136 0.88459998 1973289
-0.29455414 0.25067332 0.88259995 2235687
-0.2935116 0.25124136 0.88459998 2497828
-0.29180157 0.25124136 0.88459998 2496801
-0.29009157 0.25124136 0.88459998 2496286
-0.28838155 0.25124136 0.88459998 2561564
-0.28602341 0.25067332 0.88259995 2627615
-0.28431726 0.25067332 0.88259995 2364706
-0.2826111 0.25067332 0.88259995 2102565
-0.28090495 0.25067332 0.88259995 2299177
-0.27919883 0.25067332 0.88259995 2561317
-0.27654946 0.24982129 0.87959999 2102816
-0.27484912 0.24982129 0.87959999 1710113
-0.2740804 0.25067332 0.88259995 2103586
-0.27237424 0.25067332 0.88259995 2562082
-0.27066809 0.25067332 0.88259995 2627362
-0.26896197 0.25067332 0.88259995 2693404
-0.26634741 0.24982129 0.87959999 2366231
-0.26464704 0.24982129 0.87959999 2103841
-0.26294672 0.24982129 0.87959999 2365739
-0.26124635 0.24982129 0.87959999 2693677
-0.25895587 0.24925323 0.87759995 2562094
-0.25725937 0.24925323 0.87759995 2497320
-0.2549805 0.24868521 0.87559998 2498082
-0.25328788 0.24868521 0.87559998 2497315
-0.25216994 0.24925323 0.87759995 2693668
-0.25047344 0.24925323 0.87759995 2955301
-0.24821003 0.24868521 0.87559998 2823205
-0.24651742 0.24868521 0.87559998 2757931
-0.2448248 0.24868521 0.87559998 2757937
-0.2431322 0.24868521 0.87559998 2758446
-0.24143958 0.24868521 0.87559998 2693420
-0.23974696 0.24868521 0.87559998 2692906
-0.23805435 0.24868521 0.87559998 2757928
-0.23636174 0.24868521 0.87559998 2823200
-0.23466912 0.24868521 0.87559998 2692121
-0.23297651 0.24868521 0.87559998 2626079
-0.23128389 0.24868521 0.87559998 2298150
-0.2295913 0.24868521 0.87559998 1971236
-0.22789867 0.24868521 0.87559998 1971746
-0.22620605 0.24868521 0.87559998 1971992
-0.22451344 0.24868521 0.87559998 2234639
-0.22282083 0.24868521 0.87559998 2496790
-0.22062314 0.24811719 0.87360001 2497053
-0.21893439 0.24811719 0.87360001 2497051
-0.21724564 0.24811719 0.87360001 2497305
-0.21501404 0.24749234 0.8714 2562333
-0.21283993 0.24692431 0.86939996 2562081
-0.21164507 0.24749234 0.8714 2562082
-0.20996056 0.24749234 0.8714 2561315
-0.20827606 0.24749234 0.8714 2561574
-0.20659156 0.24749234 0.8714 2496810
-0.20443678 0.24692431 0.86939996 2497318
-0.20275615 0.24692431 0.86939996 2629155
-0.20153809 0.24749234 0.8714 2759461
-0.1993949 0.24692431 0.86939996 2627879
-0.19771427 0.24692431 0.86939996 2563620
-0.19603364 0.24692431 0.86939996 2563617
-0.19435301 0.24692431 0.86939996 2629158
-0.19267239 0.24692431 0.86939996 2761004
-0.19099174 0.24692431 0.86939996 2891049
-0.18931112 0.24692431 0.86939996 2824487
-0.18763049 0.24692431 0.86939996 2824743
-0.18594986 0.24692431 0.86939996 2694184
-0.18426923 0.24692431 0.86939996 2628652
-0.18195856 0.24607226 0.8664 2628912
-0.18028373 0.24607226 0.8664 2695208
-0.17860889 0.24607226 0.8664 2761504
-0.17693408 0.24607226 0.8664 2892582
-0.17525925 0.24607226 0.8664 3024172
-0.17358442 0.24607226 0.8664 3154476
-0.17190957 0.24607226 0.8664 3154476
-0.17023475 0.24607226 0.8664 3220013
-0.16855992 0.24607226 0.8664 3154990
-0.16688509 0.24607226 0.8664 3089709
-0.16482888 0.24550423 0.86439997 3155243
-0.16315791 0.24550423 0.86439997 3286320
-0.15967427 0.25322947 0.89159995 22368834
-0.50788945 0.26301971 0.91979998 20661315
-0.5050109 0.26244777 0.91779995 20324141
-0.50323671 0.26244777 0.91779995 20060971
-0.49982342 0.26158991 0.91479999 3153193
-0.49696609 0.26101804 0.91279995 3022623
-0.49520162 0.26101804 0.91279995 3219221
-0.49170724 0.26010299 0.90959996 3416096
-0.48779434 0.25895917 0.90559995 3285292
-0.48443359 0.25810131 0.90259999 3154483
-0.48161921 0.25752941 0.90059996 2957883
-0.47987831 0.25752941 0.90059996 2761259
-0.47813734 0.25752941 0.90059996 2892572
-0.47639638 0.25752941 0.90059996 2958388
-0.47570956 0.25810131 0.90259999 2827852
-0.47291452 0.25752941 0.90059996 2697536
-0.47221994 0.25810131 0.90259999 2958901
-0.46943262 0.25752941 0.90059996 3220017
-0.46769172 0.25752941 0.90059996 3351086
-0.46595076 0.25752941 0.90059996 3547691
-0.46420979 0.25752941 0.90059996 3154472
-0.46144187 0.2569575 0.89859998 2761514
-0.45970479 0.2569575 0.89859998 2826796
-0.45643878 0.25609961 0.89559996 2957869
-0.45623064 0.2569575 0.89859998 2827054
-0.45297623 0.25609961 0.89559996 2696498
-0.45124495 0.25609961 0.89559996 3221559
-0.44951364 0.25609961 0.89559996 3812151
-0.44778237 0.25609961 0.89559996 3747639
-0.44605109 0.25609961 0.89559996 3683380
-0.44431981 0.25609961 0.89559996 3746354
-0.44258854 0.25609961 0.89559996 3876910
-0.44085726 0.25609961 0.89559996 3351851
-0.43912601 0.25609961 0.89559996 2892590
-0.43885988 0.2569575 0.89859998 3023154
-0.43712282 0.2569575 0.89859998 3088690
-0.43538573 0.2569575 0.89859998 3153971
-0.43364865 0.2569575 0.89859998 3285045
-0.43191159 0.2569575 0.89859998 20258872
-0.43017453 0.2569575 0.89859998 20521015
-0.42843744 0.2569575 0.89859998 20914742
-0.42670038 0.2569575 0.89859998 21307960
-0.42259869 0.25552773 0.89359999 21314107
-0.42087129 0.25552773 0.89359999 21320501
-0.41914392 0.25552773 0.89359999 20791343
-0.41741648 0.25552773 0.89359999 20330290
-0.41568908 0.25552773 0.89359999 19929397
-0.41488814 0.25609961 0.89559996 19601959
-0.4131569 0.25609961 0.89559996 2890522
-0.41050684 0.25552773 0.89359999 2957092
-0.40786451 0.2549558 0.89159995 3089199
-0.40614095 0.2549558 0.89159995 3221041
-0.40441743 0.2549558 0.89159995 3483443
-0.40269387 0.2549558 0.89159995 3811633
-0.40097034 0.2549558 0.89159995 3350831
-0.39790344 0.25409797 0.88859999 2957356
-0.3961857 0.25409797 0.88859999 2826025
-0.39446798 0.25409797 0.88859999 2694700
-0.39098227 0.25295416 0.88459998 2760752
-0.38839212 0.25238222 0.88259995 2892083
-0.38668597 0.25238222 0.88259995 3022902
-0.38890553 0.2549558 0.89159995 3153981
-0.387182 0.2549558 0.89159995 3286340
-0.38545844 0.2549558 0.89159995 3417917
-0.38244376 0.25409797 0.88859999 3548214
-0.38072601 0.25409797 0.88859999 3744050
-0.37900826 0.25409797 0.88859999 3547695
-0.37644133 0.25352603 0.88659996 3350830
-0.37557277 0.25409797 0.88859999 3219758
-0.37301359 0.25352603 0.88659996 3088942
-0.37046212 0.25295416 0.88459998 3154478
-0.36875212 0.25295416 0.88459998 3154990
-0.36704209 0.25295416 0.88459998 3285550
-0.3653321 0.25295416 0.88459998 3350832
-0.36362207 0.25295416 0.88459998 3220018
-0.36191204 0.25295416 0.88459998 3023661
-0.36020204 0.25295416 0.88459998 3024169
-0.35768151 0.25238222 0.88259995 3024686
-0.35476542 0.25152439 0.87959999 2958387
-0.35507202 0.25295416 0.88459998 2892596
-0.35256308 0.25238222 0.88259995 2826293
-0.35085693 0.25238222 0.88259995 2826036
-0.34915078 0.25238222 0.88259995 2890803
-0.34823197 0.25295416 0.88459998 3021362
-0.3457385 0.25238222 0.88259995 3020849
-0.34403235 0.25238222 0.88259995 3020591
-0.34310195 0.25295416 0.88459998 2955565
-0.34293565 0.25409797 0.88859999 2890287
-0.34121791 0.25409797 0.88859999 3020849
-0.338736 0.25352603 0.88659996 3086126
-0.33702213 0.25352603 0.88659996 2955820
-0.33606467 0.25409797 0.88859999 2825772
-0.33434692 0.25409797 0.88859999 2826284
-0.33262917 0.25409797 0.88859999 2826797
-0.33091143 0.25409797 0.88859999 2826287
-0.32845274 0.25352603 0.88659996 2891309
-0.32673886 0.25352603 0.88659996 2891564
-0.3242918 0.25295416 0.88459998 2891561
-0.32185248 0.25238222 0.88259995 2891303
-0.31905812 0.25152439 0.87959999 2890537
-0.31735781 0.25152439 0.87959999 2955820
-0.31565744 0.25152439 0.87959999 2955564
-0.3139571 0.25152439 0.87959999 2955052
-0.31332171 0.25238222 0.88259995 2889004
-0.31055641 0.25152439 0.87959999 2824492
-0.30990943 0.25238222 0.88259995 2825516
-0.30820328 0.25238222 0.88259995 2628140
-0.30649716 0.25238222 0.88259995 2430762
-0.304791 0.25238222 0.88259995 2561833
-0.30308485 0.25238222 0.88259995 2757931
-0.30137873 0.25238222 0.88259995 2758446
-0.29967257 0.25238222 0.88259995 2758442
-0.29796642 0.25238222 0.88259995 2497063
-0.2962603 0.25238222 0.88259995 2235431
-0.29455414 0.25238222 0.88259995 2432039
-0.29284799 0.25238222 0.88259995 2629153
-0.29114184 0.25238222 0.88259995 2431771
-0.28943568 0.25238222 0.88259995 2234911
-0.28772953 0.25238222 0.88259995 2365476
-0.28602341 0.25238222 0.88259995 2562085
-0.28431726 0.25238222 0.88259995 2496806
-0.2826111 0.25238222 0.88259995 2431527
-0.27995017 0.25152439 0.87959999 2496553
-0.27824983 0.25152439 0.87959999 2627617
-0.27592066 0.25095248 0.87759995 2431002
-0.27484912 0.25152439 0.87959999 2299931
-0.27314878 0.25152439 0.87959999 2496285
-0.27144843 0.25152439 0.87959999 2758178
-0.26913476 0.25095248 0.87759995 2758695
-0.26804775 0.25152439 0.87959999 2759207
-0.2657418 0.25095248 0.87759995 2562599
-0.2640453 0.25095248 0.87759995 2432297
-0.26234883 0.25095248 0.87759995 2562860
-0.26065236 0.25095248 0.87759995 2759724
-0.25836572 0.25038058 0.87559998 2628140
-0.2566731 0.25038058 0.87559998 2563626
-0.2549805 0.25038058 0.87559998 2629160
-0.25328788 0.25038058 0.87559998 2627879
-0.25159526 0.25038058 0.87559998 2759207
-0.24990267 0.25038058 0.87559998 2890279
-0.24821003 0.25038058 0.87559998 2823975
-0.24651742 0.25038058 0.87559998 2823721
-0.2448248 0.25038058 0.87559998 2824236
-0.2431322 0.25038058 0.87559998 2824749
-0.24143958 0.25038058 0.87559998 2694190
-0.23974696 0.25038058 0.87559998 2629419
-0.23805435 0.25038058 0.87559998 2694441
-0.23636174 0.25038058 0.87559998 2759973
-0.23466912 0.25038058 0.87559998 2759201
-0.23297651 0.25038058 0.87559998 2758690
-0.23128389 0.25038058 0.87559998 2562084
-0.2295913 0.25038058 0.87559998 2365732
-0.22737813 0.24980867 0.87360001 2365732
-0.22620605 0.25038058 0.87559998 2366751
-0.22400063 0.24980867 0.87360001 2431770
-0.22231188 0.24980867 0.87360001 2497053
-0.22062314 0.24980867 0.87360001 2562593
-0.21838303 0.24917959 0.8714 2693921
-0.21620119 0.24860767 0.86939996 2693922
-0.21378033 0.24774981 0.8664 2759717
-0.21210548 0.24774981 0.8664 2759465
-0.21115929 0.24860767 0.86939996 2759464
-0.20947866 0.24860767 0.86939996 2759464
-0.20779803 0.24860767 0.86939996 2694442
-0.20611741 0.24860767 0.86939996 2629165
-0.20443678 0.24860767 0.86939996 2629928
-0.20275615 0.24860767 0.86939996 2760227
-0.20107552 0.24860767 0.86939996 2891303
-0.19870685 0.24774981 0.8664 2825772
-0.19703202 0.24774981 0.8664 2826027
-0.19535719 0.24774981 0.8664 2825770
-0.19368237 0.24774981 0.8664 2825777
-0.19200754 0.24774981 0.8664 2892345
-0.19033271 0.24774981 0.8664 3023922
-0.18865788 0.24774981 0.8664 2957868
-0.18698305 0.24774981 0.8664 2826796
-0.18594986 0.24860767 0.86939996 2695212
-0.18363339 0.24774981 0.8664 2564147
-0.18195856 0.24774981 0.8664 2629690
-0.17986757 0.24717788 0.86439997 2695730
-0.17819659 0.24717788 0.86439997 2826794
-0.17693408 0.24774981 0.8664 2893356
-0.17525925 0.24774981 0.8664 3024174
-0.17318369 0.24717788 0.86439997 3154733
-0.17151274 0.24717788 0.86439997 3285293
-0.17023475 0.24774981 0.8664 3350830
-0.16817081 0.24717788 0.86439997 3220271
-0.16649985 0.24717788 0.86439997 3089708
-0.16482888 0.24717788 0.86439997 3220777
-0.16315791 0.24717788 0.86439997 3418160
-0.16139783 0.2549558 0.89159995 21049929
-0.15913703 0.25409797 0.88859999 22565446
-0.5050109 0.26422486 0.91779995 20190251
-0.50323671 0.26422486 0.91779995 20060202
-0.49982342 0.26336122 0.91479999 3152938
-0.49805498 0.26336122 0.91479999 3022627
-0.49520162 0.2627854 0.91279995 3350555
-0.49170724 0.26186416 0.90959996 3678242
-0.48779434 0.26071259 0.90559995 3350826
-0.48443359 0.25984892 0.90259999 3088686
-0.48161921 0.25927317 0.90059996 3023410
-0.47987831 0.25927317 0.90059996 2957610
-0.47813734 0.25927317 0.90059996 2892065
-0.47639638 0.25927317 0.90059996 2892848
-0.47202024 0.25783372 0.89559996 2564926
-0.47028896 0.25783372 0.89559996 2237751
-0.47117358 0.25927317 0.90059996 2763056
-0.46839017 0.25869739 0.89859998 3285806
-0.46665311 0.25869739 0.89859998 3679276
-0.46336389 0.25783372 0.89559996 4137513
-0.46317893 0.25869739 0.89859998 3350054
-0.46144187 0.25869739 0.89859998 2564135
-0.45817006 0.25783372 0.89559996 2695720
-0.45643878 0.25783372 0.89559996 2826280
-0.4547075 0.25783372 0.89559996 2498344
-0.45297623 0.25783372 0.89559996 2170669
-0.45124495 0.25783372 0.89559996 2629682
-0.44951364 0.25783372 0.89559996 3089715
-0.44678244 0.25725794 0.89359999 3288373
-0.44605109 0.25783372 0.89559996 3484728
-0.44332761 0.25725794 0.89359999 4074299
-0.4416002 0.25725794 0.89359999 4662580
-0.4398728 0.25725794 0.89359999 3875374
-0.43912601 0.25783372 0.89559996 3153968
-0.43739474 0.25783372 0.89559996 3153970
-0.43712282 0.25869739 0.89859998 3153970
-0.43393219 0.25783372 0.89559996 3219762
-0.43220091 0.25783372 0.89559996 3351091
-0.43046963 0.25783372 0.89559996 3482933
-0.42873836 0.25783372 0.89559996 20455477
-0.42700708 0.25783372 0.89559996 20521526
-0.4252758 0.25783372 0.89559996 20587064
-0.42354453 0.25783372 0.89559996 20588858
-0.42087129 0.25725794 0.89359999 20588598
-0.41914392 0.25725794 0.89359999 20194867
-0.41741648 0.25725794 0.89359999 19800114
-0.41661942 0.25783372 0.89559996 19601202
-0.41488814 0.25783372 0.89559996 19405097
-0.4131569 0.25783372 0.89559996 2694433
-0.41050684 0.25725794 0.89359999 2760232
-0.40877944 0.25725794 0.89359999 2826800
-0.40705204 0.25725794 0.89359999 2892081
-0.40532461 0.25725794 0.89359999 3023154
-0.40133893 0.25581849 0.88859999 3153713
-0.39962119 0.25581849 0.88859999 3022384
-0.39700788 0.25524271 0.88659996 2956845
-0.3944023 0.25466692 0.88459998 2760235
-0.39269227 0.25466692 0.88459998 2563627
-0.39098227 0.25466692 0.88459998 2629163
-0.38839212 0.25409114 0.88259995 2760238
-0.38668597 0.25409114 0.88259995 2825777
-0.38585222 0.25466692 0.88459998 2891573
-0.38587925 0.25581849 0.88859999 3023673
-0.3841615 0.25581849 0.88859999 3154228
-0.38244376 0.25581849 0.88859999 3219247
-0.38072601 0.25581849 0.88859999 3285034
-0.37900826 0.25581849 0.88859999 3220260
-0.37644133 0.25524271 0.88659996 3154216
-0.37472746 0.25524271 0.88659996 3088428
-0.37217212 0.25466692 0.88459998 3022381
-0.37046212 0.25466692 0.88459998 3022383
-0.3679184 0.25409114 0.88259995 3022382
-0.36704209 0.25466692 0.88459998 3022637
-0.3653321 0.25466692 0.88459998 3088174
-0.36362207 0.25466692 0.88459998 2891823
-0.36191204 0.25466692 0.88459998 2760490
-0.36020204 0.25466692 0.88459998 2891557
-0.35768151 0.25409114 0.88259995 3022890
-0.35476542 0.2532275 0.87959999 2826544
-0.35226226 0.25265169 0.87759995 2694961
-0.35256308 0.25409114 0.88259995 2694451
-0.35085693 0.25409114 0.88259995 2693936
-0.34915078 0.25409114 0.88259995 2693166
-0.34744465 0.25409114 0.88259995 2692655
-0.3457385 0.25409114 0.88259995 2757168
-0.34403235 0.25409114 0.88259995 2889005
-0.34232622 0.25409114 0.88259995 2758699
-0.34139195 0.25466692 0.88459998 2627115
-0.33968189 0.25466692 0.88459998 2626347
-0.338736 0.25524271 0.88659996 2691879
-0.33778241 0.25581849 0.88859999 2626339
-0.33606467 0.25581849 0.88859999 2562341
-0.33434692 0.25581849 0.88859999 2629160
-0.33262917 0.25581849 0.88859999 2759978
-0.33091143 0.25581849 0.88859999 2628653
-0.32919371 0.25581849 0.88859999 2563372
-0.32747594 0.25581849 0.88859999 2630442
-0.3242918 0.25466692 0.88459998 2760229
-0.32185248 0.25409114 0.88259995 2759968
-0.31905812 0.2532275 0.87959999 2759461
-0.31663617 0.25265169 0.87759995 2759210
-0.31565744 0.2532275 0.87959999 2758955
-0.3139571 0.2532275 0.87959999 2692395
-0.31225675 0.2532275 0.87959999 2626860
-0.31055641 0.2532275 0.87959999 2626860
-0.30885604 0.2532275 0.87959999 2692652
-0.30820328 0.25409114 0.88259995 2430765
-0.30649716 0.25409114 0.88259995 2234156
-0.304791 0.25409114 0.88259995 2431019
-0.30308485 0.25409114 0.88259995 2693163
-0.30137873 0.25409114 0.88259995 2693164
-0.29967257 0.25409114 0.88259995 2758699
-0.29796642 0.25409114 0.88259995 2628138
-0.2962603 0.25409114 0.88259995 2497066
-0.29455414 0.25409114 0.88259995 2628138
-0.29284799 0.25409114 0.88259995 2759718
-0.29114184 0.25409114 0.88259995 2366499
-0.28943568 0.25409114 0.88259995 1973029
-0.28772953 0.25409114 0.88259995 2234920
-0.28602341 0.25409114 0.88259995 2497063
-0.28431726 0.25409114 0.88259995 2628903
-0.2826111 0.25409114 0.88259995 2759209
-0.27995017 0.2532275 0.87959999 2693163
-0.27824983 0.2532275 0.87959999 2693158
-0.27592066 0.25265169 0.87759995 2823969
-0.27422419 0.25265169 0.87759995 2955043
-0.27252769 0.25265169 0.87759995 2954532
-0.27083123 0.25265169 0.87759995 2955048
-0.26913476 0.25265169 0.87759995 2890027
-0.26743826 0.25265169 0.87759995 2824746
-0.26513618 0.25207594 0.87559998 2759210
-0.26344356 0.25207594 0.87559998 2759211
-0.26175094 0.25207594 0.87559998 2759212
-0.26005834 0.25207594 0.87559998 2824749
-0.25836572 0.25207594 0.87559998 2758957
-0.2566731 0.25207594 0.87559998 2694444
-0.25439811 0.25150016 0.87360001 2761003
-0.25270936 0.25150016 0.87360001 2825259
-0.25159526 0.25207594 0.87559998 2824747
-0.24990267 0.25207594 0.87559998 2824751
-0.24821003 0.25207594 0.87559998 2889779
-0.24651742 0.25207594 0.87559998 2955568
-0.2448248 0.25207594 0.87559998 2956078
-0.2431322 0.25207594 0.87559998 2956337
-0.24143958 0.25207594 0.87559998 2760244
-0.23974696 0.25207594 0.87559998 2563887
-0.23805435 0.25207594 0.87559998 2629674
-0.23582186 0.25150016 0.87360001 2695208
-0.23413312 0.25150016 0.87360001 2760998
-0.23244436 0.25150016 0.87360001 2890790
-0.23128389 0.25207594 0.87559998 2824743
-0.22906686 0.25150016 0.87360001 2824744
-0.22737813 0.25150016 0.87360001 2759465
-0.22568938 0.25150016 0.87360001 2759461
-0.22400063 0.25150016 0.87360001 2628641
-0.22231188 0.25150016 0.87360001 2562852
-0.22062314 0.25150016 0.87360001 2693927
-0.2178818 0.25029102 0.86939996 2890535
-0.21620119 0.25029102 0.86939996 2890792
-0.21378033 0.24942733 0.8664 2956333
-0.21161586 0.24885158 0.86439997 2956594
-0.21043065 0.24942733 0.8664 3022127
-0.20875584 0.24942733 0.8664 2956844
-0.207081 0.24942733 0.8664 2891053
-0.20540617 0.24942733 0.8664 2826542
-0.20373134 0.24942733 0.8664 2760997
-0.20205651 0.24942733 0.8664 2891292
-0.2003817 0.24942733 0.8664 3088164
-0.19824815 0.24885158 0.86439997 3088940
-0.19657719 0.24885158 0.86439997 3088429
-0.19490622 0.24885158 0.86439997 3022638
-0.19323526 0.24885158 0.86439997 3023153
-0.19200754 0.24942733 0.8664 3089461
-0.19033271 0.24942733 0.8664 3220274
-0.18865788 0.24942733 0.8664 3023663
-0.18698305 0.24942733 0.8664 2892589
-0.18530822 0.24942733 0.8664 2695980
-0.18363339 0.24942733 0.8664 2564400
-0.18195856 0.24942733 0.8664 2629684
-0.17986757 0.24885158 0.86439997 2761264
-0.17819659 0.24885158 0.86439997 2826796
-0.17652564 0.24885158 0.86439997 2958385
-0.17525925 0.24942733 0.8664 3089718
-0.17318369 0.24885158 0.86439997 3220018
-0.17151274 0.24885158 0.86439997 3350574
-0.16984178 0.24885158 0.86439997 3547442
-0.16817081 0.24885158 0.86439997 3285557
-0.16649985 0.24885158 0.86439997 3088946
-0.16482888 0.24885158 0.86439997 3285550
-0.16278042 0.24827579 0.8624 3548723
-0.16111332 0.24827579 0.8624 3876408
-0.16085477 0.25581849 0.88859999 21311816
-0.15913703 0.25581849 0.88859999 22828367
-0.50611138 0.26658157 0.91979998 19601705
-0.50433338 0.26658157 0.91979998 2692906
-0.49982342 0.26513246 0.91479999 2760236
-0.49696609 0.2645528 0.91279995 2892327
-0.49346554 0.26362535 0.90959996 3088930
-0.48954493 0.26246604 0.90559995 3351077
-0.48617843 0.26159656 0.90259999 3219496
-0.48336017 0.26101691 0.90059996 3022377
-0.48054969 0.26043728 0.89859998 2957098
-0.47881261 0.26043728 0.89859998 2892072
-0.47707552 0.26043728 0.89859998 2892583
-0.47533846 0.26043728 0.89859998 2892844
-0.47202024 0.2595678 0.89559996 2695985
-0.47028896 0.2595678 0.89559996 2499118
-0.47012725 0.26043728 0.89859998 2761515
-0.46839017 0.26043728 0.89859998 3089194
-0.46665311 0.26043728 0.89859998 3285802
-0.46336389 0.2595678 0.89559996 3547943
-0.46317893 0.26043728 0.89859998 3087909
-0.45990133 0.2595678 0.89559996 2694693
-0.45817006 0.2595678 0.89559996 2826533
-0.45541948 0.25898814 0.89359999 3022884
-0.45369208 0.25898814 0.89359999 2694947
-0.45196468 0.25898814 0.89359999 2367016
-0.45124495 0.2595678 0.89559996 2628909
-0.44850984 0.25898814 0.89359999 2956592
-0.44678244 0.25898814 0.89359999 3023924
-0.44605109 0.2595678 0.89559996 3089980
-0.44332761 0.25898814 0.89359999 3482437
-0.4416002 0.25898814 0.89359999 3809083
-0.4398728 0.25898814 0.89359999 3349809
-0.4381454 0.25898814 0.89359999 2890546
-0.43739474 0.2595678 0.89559996 2956339
-0.43566346 0.2595678 0.89559996 3022130
-0.43296316 0.25898814 0.89359999 3088177
-0.43123573 0.25898814 0.89359999 3154993
-0.42950833 0.25898814 0.89359999 3285298
-0.42873836 0.2595678 0.89559996 3350068
-0.42605352 0.25898814 0.89359999 3416119
-0.42432609 0.25898814 0.89359999 20259128
-0.42259869 0.25898814 0.89359999 20193593
-0.42087129 0.25898814 0.89359999 20060216
-0.41820577 0.25840849 0.89159995 19863351
-0.41648221 0.25840849 0.89159995 19600691
-0.41568908 0.25898814 0.89359999 2692911
-0.41396168 0.25898814 0.89359999 2627627
-0.41223425 0.25898814 0.89359999 2628392
-0.40958807 0.25840849 0.89159995 2629165
-0.40877944 0.25898814 0.89359999 2694706
-0.40614095 0.25840849 0.89159995 2759730
-0.40305668 0.25753903 0.88859999 2825266
-0.40043563 0.25695938 0.88659996 2956082
-0.39872175 0.25695938 0.88659996 2955826
-0.39700788 0.25695938 0.88659996 2890287
-0.3944023 0.25637969 0.88459998 2563629
-0.39269227 0.25637969 0.88459998 2235178
-0.39098227 0.25637969 0.88459998 2366247
-0.38927227 0.25637969 0.88459998 2563113
-0.38756222 0.25637969 0.88459998 2497580
-0.38585222 0.25637969 0.88459998 2432557
-0.38414222 0.25637969 0.88459998 2629167
-0.38329685 0.25695938 0.88659996 2825772
-0.38244376 0.25753903 0.88859999 2891049
-0.3798691 0.25695938 0.88659996 2956577
-0.3781552 0.25695938 0.88659996 2891546
-0.37644133 0.25695938 0.88659996 2761250
-0.37472746 0.25695938 0.88659996 2759978
-0.37217212 0.25637969 0.88459998 2693933
-0.37046212 0.25637969 0.88459998 2759217
-0.3679184 0.25580004 0.88259995 2824751
-0.36704209 0.25637969 0.88459998 2890541
-0.3653321 0.25637969 0.88459998 2891053
-0.36362207 0.25637969 0.88459998 2563373
-0.36109379 0.25580004 0.88259995 2235943
-0.35938764 0.25580004 0.88259995 2498082
-0.35768151 0.25580004 0.88259995 2759463
-0.35476542 0.25493059 0.87959999 2694445
-0.35226226 0.25435093 0.87759995 2694703
-0.35256308 0.25580004 0.88259995 2628914
-0.35085693 0.25580004 0.88259995 2627885
-0.34915078 0.25580004 0.88259995 2431017
-0.34744465 0.25580004 0.88259995 2299180
-0.34456334 0.25493059 0.87959999 2561327
-0.34286299 0.25493059 0.87959999 2823468
-0.34232622 0.25580004 0.88259995 2758698
-0.34062007 0.25580004 0.88259995 2692136
-0.33968189 0.25637969 0.88459998 2495270
-0.338736 0.25695938 0.88659996 2363680
-0.33702213 0.25695938 0.88659996 2364443
-0.33606467 0.25753903 0.88859999 2430495
-0.33434692 0.25753903 0.88859999 2431524
-0.33262917 0.25753903 0.88859999 2432040
-0.32942185 0.25637969 0.88459998 2497580
-0.32771182 0.25637969 0.88459998 2627882
-0.32526475 0.25580004 0.88259995 2694185
-0.32245883 0.25493059 0.87959999 2760225
-0.32075846 0.25493059 0.87959999 2693913
-0.31833267 0.25435093 0.87759995 2693921
-0.3159146 0.25377128 0.87559998 2693673
-0.31493971 0.25435093 0.87759995 2758954
-0.3139571 0.25493059 0.87959999 2627371
-0.31225675 0.25493059 0.87959999 2496300
-0.31055641 0.25493059 0.87959999 2561325
-0.30885604 0.25493059 0.87959999 2626093
-0.30820328 0.25580004 0.88259995 2430766
-0.30649716 0.25580004 0.88259995 2299438
-0.304791 0.25580004 0.88259995 2234414
-0.30308485 0.25580004 0.88259995 2234668
-0.30137873 0.25580004 0.88259995 2431274
-0.29865396 0.25493059 0.87959999 2628139
-0.29796642 0.25580004 0.88259995 2497581
-0.2962603 0.25580004 0.88259995 2367021
-0.29455414 0.25580004 0.88259995 2563117
-0.29284799 0.25580004 0.88259995 2825260
-0.29114184 0.25580004 0.88259995 2563116
-0.28845191 0.25493059 0.87959999 2235436
-0.28675154 0.25493059 0.87959999 2366252
-0.28505123 0.25493059 0.87959999 2497322
-0.28335086 0.25493059 0.87959999 2628392
-0.28165051 0.25493059 0.87959999 2759210
-0.27995017 0.25493059 0.87959999 2693677
-0.27761713 0.25435093 0.87759995 2629163
-0.27529186 0.25377128 0.87559998 2693929
-0.27359924 0.25377128 0.87559998 2759466
-0.27190664 0.25377128 0.87559998 2825004
-0.27021399 0.25377128 0.87559998 2890542
-0.2685214 0.25377128 0.87559998 2824752
-0.26682881 0.25377128 0.87559998 2760238
-0.26513618 0.25377128 0.87559998 2759469
-0.26344356 0.25377128 0.87559998 2824493
-0.26175094 0.25377128 0.87559998 2759725
-0.26005834 0.25377128 0.87559998 2695214
-0.25836572 0.25377128 0.87559998 2825519
-0.25608683 0.25319165 0.87360001 2956591
-0.25375742 0.25255403 0.8714 2957103
-0.25207293 0.25255403 0.8714 2956847
-0.25102058 0.25319165 0.87360001 2890799
-0.24933185 0.25319165 0.87360001 2825271
-0.2476431 0.25319165 0.87360001 2890815
-0.24595435 0.25319165 0.87360001 3022135
-0.2442656 0.25319165 0.87360001 3022128
-0.24257685 0.25319165 0.87360001 3087925
-0.24088812 0.25319165 0.87360001 2891835
-0.23919936 0.25319165 0.87360001 2696243
-0.23751062 0.25319165 0.87360001 2761259
-0.23582186 0.25319165 0.87360001 2761259
-0.23413312 0.25319165 0.87360001 2826283
-0.23185898 0.25255403 0.8714 2825771
-0.2301745 0.25255403 0.8714 2825771
-0.22849001 0.25255403 0.8714 2826284
-0.22680551 0.25255403 0.8714 2759982
-0.22512102 0.25255403 0.8714 2758955
-0.22343652 0.25255403 0.8714 2759464
-0.22175202 0.25255403 0.8714 2759466
-0.21880481 0.25110489 0.8664 2759725
-0.21712998 0.25110489 0.8664 2825773
-0.21545516 0.25110489 0.8664 2825774
-0.21328682 0.25052524 0.86439997 2892085
-0.21161586 0.25052524 0.86439997 2957628
-0.20994489 0.25052524 0.86439997 3023926
-0.20827393 0.25052524 0.86439997 2957361
-0.207081 0.25110489 0.8664 2956592
-0.20540617 0.25110489 0.8664 2957615
-0.20326105 0.25052524 0.86439997 2892066
-0.20065722 0.24936591 0.86039996 3023125
-0.198994 0.24936591 0.86039996 3088673
-0.19824815 0.25052524 0.86439997 3154477
-0.19657719 0.25052524 0.86439997 3154735
-0.19490622 0.25052524 0.86439997 2958130
-0.19278817 0.24994558 0.8624 2761522
-0.19156429 0.25052524 0.86439997 2958130
-0.18989334 0.25052524 0.86439997 3219762
-0.18822238 0.25052524 0.86439997 3023410
-0.18655141 0.25052524 0.86439997 2892591
-0.18488045 0.25052524 0.86439997 2827309
-0.18320948 0.25052524 0.86439997 2762029
-0.18153851 0.25052524 0.86439997 2761518
-0.17986757 0.25052524 0.86439997 2827054
-0.17819659 0.25052524 0.86439997 2892590
-0.17652564 0.25052524 0.86439997 2958390
-0.17485467 0.25052524 0.86439997 3089471
-0.17318369 0.25052524 0.86439997 3220023
-0.17151274 0.25052524 0.86439997 3285552
-0.16984178 0.25052524 0.86439997 3418422
-0.16817081 0.25052524 0.86439997 3155772
-0.16649985 0.25052524 0.86439997 2959160
-0.16444752 0.24994558 0.8624 3155508
-0.16278042 0.24994558 0.8624 3352118
-0.16111332 0.24994558 0.8624 3745848
-0.16257252 0.25753903 0.88859999 21179448
-0.16085477 0.25753903 0.88859999 21375816
-0.15913703 0.25753903 0.88859999 22893913
-0.50433338 0.26836252 0.91979998 2104619
-0.49982342 0.2669037 0.91479999 2433580
-0.49805498 0.2669037 0.91479999 2761259
-0.49346554 0.26538652 0.90959996 2892330
-0.48792323 0.26334423 0.90259999 3088681
