# .PCD v0.7 - Point Cloud Data file format
VERSION 0.7
FIELDS x y z rgba
SIZE 4 4 4 4
TYPE F F F U
COUNT 1 1 1 1
WIDTH 662
HEIGHT 1
VIEWPOINT 0 0 0 1 0 0 0
POINTS 662
DATA ascii
-0.0071986569 0.11813101 1.0222 17498626
-0.0032466471 0.11813101 1.0222 17957640
-0.0071986569 0.12208942 1.0222 1775896
-0.0032466471 0.12208942 1.0222 1904406
-0.058402877 0.12567791 1.0192 2761257
-0.054462463 0.12567791 1.0192 2958380
-0.050522055 0.12567791 1.0192 2761513
-0.046581641 0.12567791 1.0192 2761256
-0.042766742 0.12604783 1.0222 2762025
-0.038814735 0.12604783 1.0222 3356460
-0.034862727 0.12604783 1.0222 2828079
-0.030910715 0.12604783 1.0222 2365997
-0.026958706 0.12604783 1.0222 2629165
-0.023006696 0.12604783 1.0222 2893358
-0.0071986569 0.12604783 1.0222 2170670
-0.0032371185 0.12567791 1.0192 2432551
-0.062343284 0.12962471 1.0192 19143209
-0.058402877 0.12962471 1.0192 2761259
-0.054462463 0.12962471 1.0192 3022385
-0.050373342 0.12924315 1.0161999 2630193
-0.046581641 0.12962471 1.0192 2562859
-0.042641234 0.12962471 1.0192 2431018
-0.038700819 0.12962471 1.0192 2497317
-0.034760408 0.12962471 1.0192 2171167
-0.030910715 0.13000625 1.0222 1709591
-0.026958706 0.13000625 1.0222 2234909
-0.023006696 0.13000625 1.0222 2761010
-0.019054687 0.13000625 1.0222 3417652
-0.015058353 0.12962471 1.0192 2695719
-0.011117941 0.12962471 1.0192 2235941
-0.0071775299 0.12962471 1.0192 1841705
-0.0032275899 0.12924315 1.0161999 2301483
-0.066088594 0.13317834 1.0161999 19337014
-0.06215978 0.13317834 1.0161999 2695985
-0.058230966 0.13317834 1.0161999 2827311
-0.054302152 0.13317834 1.0161999 2630448
-0.050373342 0.13317834 1.0161999 2499115
-0.046444532 0.13317834 1.0161999 2300965
-0.042641234 0.13357151 1.0192 2169380
-0.038586903 0.13317834 1.0161999 2168610
-0.034658089 0.13317834 1.0161999 1905952
-0.030819997 0.13357151 1.0192 1710366
-0.026800467 0.13317834 1.0161999 2234657
-0.022871653 0.13317834 1.0161999 3022622
-0.018886916 0.13278517 1.0131999 2823966
-0.014940155 0.13252306 1.0112 2298917
-0.011030673 0.13252306 1.0112 2299678
-0.0071352758 0.13278517 1.0131999 1972001
-0.0032275899 0.13317834 1.0161999 2103083
-0.065893486 0.13670874 1.0131999 19669542
-0.061976273 0.13670874 1.0131999 2893357
-0.058059055 0.13670874 1.0131999 2761525
-0.054302152 0.13711351 1.0161999 2564154
-0.050373342 0.13711351 1.0161999 2431793
-0.046307415 0.13670874 1.0131999 2103082
-0.042390201 0.13670874 1.0131999 1709356
-0.038472988 0.13670874 1.0131999 1907497
-0.034487564 0.13643888 1.0112 1840673
-0.030638559 0.13670874 1.0131999 2037285
-0.026721345 0.13670874 1.0131999 2301747
-0.022804132 0.13670874 1.0131999 3023923
-0.018849637 0.13643888 1.0112 2629418
-0.014940155 0.13643888 1.0112 2235178
-0.011030673 0.13643888 1.0112 2497321
-0.0071211909 0.13643888 1.0112 3022378
-0.0032180618 0.13670874 1.0131999 2431264
-0.065763414 0.14035469 1.0112 3220782
-0.061853934 0.14035469 1.0112 2957607
-0.057944454 0.14035469 1.0112 2761510
-0.054141842 0.1406323 1.0131999 2629928
-0.050224628 0.1406323 1.0131999 2628140
-0.046307415 0.1406323 1.0131999 2496037
-0.042390201 0.1406323 1.0131999 1840405
-0.038397044 0.14035469 1.0112 1839381
-0.034487564 0.14035469 1.0112 1775388
-0.030578082 0.14035469 1.0112 1905440
-0.026668601 0.14035469 1.0112 2037288
-0.022759119 0.14035469 1.0112 1777193
-0.018849637 0.14035469 1.0112 2105127
-0.014940155 0.14035469 1.0112 2169384
-0.011030673 0.14035469 1.0112 2499128
-0.0071211909 0.14035469 1.0112 3354173
-0.0032117094 0.14035469 1.0112 2762543
-0.065373212 0.1434145 1.0052 3024430
-0.061670426 0.14384249 1.0081999 2827309
-0.057772543 0.14384249 1.0081999 2695723
-0.05387466 0.14384249 1.0081999 2564144
-0.049976781 0.14384249 1.0081999 2697777
-0.045941785 0.1434145 1.0052 3352614
-0.042181011 0.14384249 1.0081999 2695713
-0.038283128 0.14384249 1.0081999 2300699
-0.03428293 0.1434145 1.0052 2039066
-0.030396648 0.1434145 1.0052 2235677
-0.026510362 0.1434145 1.0052 2365728
-0.022624077 0.1434145 1.0052 1577758
-0.018793713 0.14384249 1.0081999 1708830
-0.014895829 0.14384249 1.0081999 1708326
-0.010997946 0.14384249 1.0081999 2037292
-0.0071000638 0.14384249 1.0081999 1973806
-0.0032021808 0.14384249 1.0081999 2237743
-0.065373212 0.14730708 1.0052 2827309
-0.061486926 0.14730708 1.0052 2695978
-0.057428733 0.14686744 1.0022 2630176
-0.053714357 0.14730708 1.0052 2236963
-0.049828071 0.14730708 1.0052 2630188
-0.045941785 0.14730708 1.0052 2894134
-0.042055503 0.14730708 1.0052 2828342
-0.038055301 0.14686744 1.0022 2563627
-0.034180615 0.14686744 1.0022 2433318
-0.030305929 0.14686744 1.0022 2763304
-0.026510362 0.14730708 1.0052 3286314
-0.022691596 0.1477467 1.0081999 2498597
-0.018681869 0.14686744 1.0022 1905954
-0.014762859 0.14642781 0.99919999 2168610
-0.010899771 0.14642781 0.99919999 2300708
-0.0070366836 0.14642781 0.99919999 1709338
-0.003173596 0.14642781 0.99919999 1707800
-0.065178111 0.1507484 1.0022 2760232
-0.061119914 0.15029715 0.99919999 2498855
-0.057256825 0.15029715 0.99919999 2695719
-0.053393733 0.15029715 0.99919999 2499882
-0.049530648 0.15029715 0.99919999 2763054
-0.045667559 0.15029715 0.99919999 2435120
-0.041804474 0.15029715 0.99919999 2762287
-0.037941385 0.15029715 0.99919999 2759977
-0.034078296 0.15029715 0.99919999 2564647
-0.030305929 0.1507484 1.0022 2303536
-0.026431242 0.1507484 1.0022 3286577
-0.022489034 0.15029715 0.99919999 2695967
-0.018625947 0.15029715 0.99919999 1711899
-0.014762859 0.15029715 0.99919999 2696995
-0.010867045 0.14984588 0.99619997 3092262
-0.0070155561 0.14984588 0.99619997 2697506
-0.0031640674 0.14984588 0.99619997 1972768
-0.064982995 0.15416649 0.99919999 2761259
-0.060936403 0.15370363 0.99619997 2433834
-0.057084914 0.15370363 0.99619997 2891311
-0.053233422 0.15370363 0.99619997 3550517
-0.049381938 0.15370363 0.99619997 3486003
-0.04553045 0.15370363 0.99619997 3026483
-0.041678958 0.15370363 0.99619997 2959922
-0.037827469 0.15370363 0.99619997 2958892
-0.033975981 0.15370363 0.99619997 3220267
-0.030215209 0.15416649 0.99919999 2500399
-0.026352122 0.15416649 0.99919999 3090735
-0.022421513 0.15370363 0.99619997 2762026
-0.018570023 0.15370363 0.99619997 1974571
-0.014718534 0.15370363 0.99619997 2698042
-0.010867045 0.15370363 0.99619997 3354171
-0.0070155561 0.15370363 0.99619997 3025453
-0.003154539 0.15324077 0.9932 2432296
-0.064787887 0.15756136 0.99619997 2892072
-0.060936403 0.15756136 0.99619997 19340335
-0.049233228 0.15708688 0.9932 5061699
-0.045393337 0.15708688 0.9932 3550775
-0.041553445 0.15708688 0.9932 2958130
-0.037713557 0.15708688 0.9932 2761264
-0.033873666 0.15708688 0.9932 3154227
-0.030124491 0.15756136 0.99619997 3025209
-0.026273003 0.15756136 0.99619997 20197691
-0.022286471 0.1566124 0.99019998 19934259
-0.018514102 0.15708688 0.9932 2893613
-0.014674212 0.15708688 0.9932 2894132
-0.010801595 0.1566124 0.99019998 3353656
-0.0069733029 0.1566124 0.99019998 3287856
-0.0031386581 0.15629606 0.98819995 2824218
-0.049084514 0.16044688 0.99019998 22107981
-0.045256224 0.16044688 0.99019998 3748157
-0.041427929 0.16044688 0.99019998 3021617
-0.037599638 0.16044688 0.99019998 2563113
-0.033703133 0.16012281 0.98819995 2039083
-0.029943055 0.16044688 0.99019998 19736881
-0.026114762 0.16044688 0.99019998 21051194
-0.022241456 0.16012281 0.98819995 20459834
-0.018420896 0.16012281 0.98819995 20064816
-0.014600337 0.16012281 0.98819995 19670833
-0.010744871 0.1596043 0.98499995 3222837
-0.0069366824 0.1596043 0.98499995 20328758
-0.0031284946 0.1596043 0.98499995 20064560
-0.048826747 0.16341867 0.98499995 20785467
-0.045018561 0.16341867 0.98499995 3353651
-0.041210372 0.16341867 0.98499995 3088174
-0.037402183 0.16341867 0.98499995 2629418
-0.033593997 0.16341867 0.98499995 18815786
-0.029882576 0.16394956 0.98819995 19867440
-0.026062015 0.16394956 0.98819995 21314372
-0.022169434 0.16341867 0.98499995 20725832
-0.018361246 0.16341867 0.98499995 20067126
-0.014553058 0.16341867 0.98499995 19406134
-0.010712145 0.16292094 0.98199999 19801912
-0.0069155558 0.16292094 0.98199999 20527680
-0.0031189665 0.16292094 0.98199999 21443135
-0.048678041 0.1667237 0.98199999 3352899
-0.044881448 0.1667237 0.98199999 3156789
-0.041084863 0.1667237 0.98199999 3549745
-0.037288271 0.1667237 0.98199999 3025198
-0.033389363 0.16621435 0.97899997 19538993
-0.02978581 0.16723302 0.98499995 19934008
-0.025898503 0.1667237 0.98199999 20460864
-0.022101913 0.1667237 0.98199999 20983870
-0.018305324 0.1667237 0.98199999 19867430
-0.014508734 0.1667237 0.98199999 19273764
-0.010679419 0.16621435 0.97899997 18944814
-0.0068944287 0.16621435 0.97899997 20071233
-0.0031094379 0.16621435 0.97899997 21385291
-0.048678041 0.17052643 0.98199999 3155502
-0.044881448 0.17052643 0.98199999 2893104
-0.041084863 0.17052643 0.98199999 3483711
-0.037174355 0.17000547 0.97899997 3091261
-0.033321153 0.16965818 0.977 2828595
-0.029604373 0.17000547 0.97899997 3025465
-0.025819384 0.17000547 0.97899997 3419457
-0.022034392 0.17000547 0.97899997 20721980
-0.0182494 0.17000547 0.97899997 19933490
-0.01446441 0.17000547 0.97899997 19472940
-0.010657603 0.16965818 0.977 18750237
-0.0068944287 0.17000547 0.97899997 19733542
-0.0031030856 0.16965818 0.977 20127797
-0.048529331 0.17379659 0.97899997 3152174
-0.044744339 0.17379659 0.97899997 2300201
-0.040750157 0.17290898 0.97399998 2694704
-0.037098411 0.17344154 0.977 2760231
-0.033218838 0.17290898 0.97399998 2695205
-0.029543895 0.17344154 0.977 3024944
-0.025766635 0.17344154 0.977 4338231
-0.021989379 0.17344154 0.977 3615032
-0.018212119 0.17344154 0.977 3090738
-0.014390537 0.17290898 0.97399998 19474990
-0.010624877 0.17290898 0.97399998 19672113
-0.0068592173 0.17290898 0.97399998 3353910
-0.0030935572 0.17290898 0.97399998 3420722
-0.048132766 0.17613655 0.97099996 3219505
-0.044378702 0.17613655 0.97099996 2432557
-0.040624641 0.17613655 0.97099996 2629163
-0.03687058 0.17613655 0.97099996 2630185
-0.033116519 0.17613655 0.97099996 2433069
-0.029453177 0.17668074 0.97399998 2370096
-0.025608396 0.17613655 0.97099996 4343103
-0.021854335 0.17613655 0.97099996 3684933
-0.018044351 0.17559235 0.96799999 2893877
-0.014346213 0.17613655 0.97099996 2629936
-0.010592151 0.17613655 0.97099996 3157043
-0.0068380898 0.17613655 0.97099996 4469303
-0.0030840288 0.17613655 0.97099996 3748151
-0.040289938 0.17841454 0.963 2958378
0.20778339 0.022038424 0.97399998 16711422
0.21154906 0.022038424 0.97399998 16711422
0.21465153 0.021970544 0.97099996 16711422
0.21840559 0.021970544 0.97099996 16711422
0.22215965 0.021970544 0.97099996 16711422
0.22521573 0.021902665 0.96799999 16711422
0.22848514 0.021857411 0.96599996 16711422
0.23221986 0.021857411 0.96599996 16711422
0.2359546 0.021857411 0.96599996 16711422
0.23894496 0.02178953 0.963 16711422
0.24266809 0.02178953 0.963 16711422
0.24639122 0.02178953 0.963 16711422
0.25011435 0.02178953 0.963 16711422
0.25304669 0.02172165 0.95999998 16711422
0.25622335 0.021676397 0.958 16711422
0.25911316 0.021608517 0.95499998 16711422
0.26280537 0.021608517 0.95499998 16711422
0.26593944 0.021563262 0.95299995 31188979
0.26962394 0.021563262 0.95299995 23745937
0.20778339 0.025810188 0.97399998 16711422
0.21089748 0.02573069 0.97099996 16711422
0.21465153 0.02573069 0.97099996 16711422
0.21840559 0.02573069 0.97099996 16711422
0.22215965 0.02573069 0.97099996 16711422
0.22521573 0.025651194 0.96799999 16711422
0.22848514 0.025598194 0.96599996 16711422
0.23221986 0.025598194 0.96599996 16711422
0.23522183 0.025518699 0.963 16711422
0.23894496 0.025518699 0.963 16711422
0.24266809 0.025518699 0.963 16711422
0.24639122 0.025518699 0.963 16711422
0.25011435 0.025518699 0.963 16711422
0.25304669 0.025439199 0.95999998 16711422
0.25622335 0.025386203 0.958 16711422
0.25911316 0.025306704 0.95499998 16711422
0.26280537 0.025306704 0.95499998 16711422
0.26593944 0.025253706 0.95299995 30266340
0.26962394 0.025253706 0.95299995 22622070
0.20778339 0.029581951 0.97399998 16514814
0.21154906 0.029581951 0.97399998 16711422
0.21465153 0.029490836 0.97099996 16711422
0.21840559 0.029490836 0.97099996 16711422
0.22215965 0.029490836 0.97099996 16711422
0.22521573 0.029399723 0.96799999 16711422
0.22848514 0.029338978 0.96599996 16711422
0.23221986 0.029338978 0.96599996 16711422
0.23522183 0.029247865 0.963 16711422
0.23894496 0.029247865 0.963 16711422
0.24266809 0.029247865 0.963 16711422
0.24639122 0.029247865 0.963 16711422
0.25011435 0.029247865 0.963 16711422
0.25304669 0.02915675 0.95999998 16711422
0.25675824 0.02915675 0.95999998 16711422
0.25992715 0.029096005 0.958 16711422
0.26280537 0.02900489 0.95499998 16514814
0.26649758 0.02900489 0.95499998 27309274
0.26962394 0.028944148 0.95299995 21572200
0.20778339 0.033353716 0.97399998 16186363
0.21154906 0.033353716 0.97399998 16187132
0.21531472 0.033353716 0.97399998 15859453
0.21840559 0.03325098 0.97099996 15728381
0.22215965 0.03325098 0.97099996 15793917
0.22521573 0.033148251 0.96799999 15859454
0.22848514 0.033079766 0.96599996 32833278
0.23221986 0.033079766 0.96599996 33488638
0.2359546 0.033079766 0.96599996 33488638
0.23894496 0.03297703 0.963 33488638
0.24266809 0.03297703 0.963 33488638
0.24639122 0.03297703 0.963 33488638
0.25011435 0.03297703 0.963 33488638
0.25383747 0.03297703 0.963 16711422
0.25675824 0.032874297 0.95999998 16711422
0.25992715 0.032805812 0.958 16711422
0.26280537 0.032703079 0.95499998 33226494
0.26649758 0.032703079 0.95499998 25201869
0.20778339 0.037125479 0.97399998 16120827
0.21154906 0.037125479 0.97399998 15858682
0.21531472 0.037125479 0.97399998 15530746
0.21840559 0.037011132 0.97099996 15137274
0.22215965 0.037011132 0.97099996 15203066
0.22521573 0.036896784 0.96799999 15137530
0.22848514 0.036820546 0.96599996 31848954
0.23221986 0.036820546 0.96599996 32373755
0.2359546 0.036820546 0.96599996 32243452
0.23968932 0.036820546 0.96599996 32046589
0.24266809 0.036706198 0.963 32243453
0.24639122 0.036706198 0.963 32374526
0.25011435 0.036706198 0.963 32374526
0.25383747 0.036706198 0.963 33160958
0.25756064 0.036706198 0.963 33423102
0.20778339 0.040897243 0.97399998 15989499
0.21154906 0.040897243 0.97399998 16055291
0.21531472 0.040897243 0.97399998 15923962
0.21840559 0.040771276 0.97099996 15596282
0.22147328 0.040645309 0.96799999 15596282
0.22521573 0.040645309 0.96799999 15334138
0.22848514 0.04056133 0.96599996 14875386
0.23221986 0.04056133 0.96599996 31324922
0.2359546 0.04056133 0.96599996 31193850
0.23968932 0.04056133 0.96599996 31062778
0.24266809 0.040435366 0.963 31455481
0.24639122 0.040435366 0.963 31455735
0.25011435 0.040435366 0.963 31258615
0.25383747 0.040435366 0.963 31651065
0.20778339 0.044669006 0.97399998 16055035
0.21154906 0.044669006 0.97399998 16120826
0.21531472 0.044669006 0.97399998 15858426
0.21840559 0.04453142 0.97099996 15661818
0.22147328 0.044393841 0.96799999 15596282
0.22521573 0.044393841 0.96799999 15334138
0.2289582 0.044393841 0.96799999 15006457
0.23221986 0.044302117 0.96599996 14678521
0.2359546 0.044302117 0.96599996 14547706
0.23968932 0.044302117 0.96599996 14482170
0.24266809 0.044164531 0.963 14875642
0.24639122 0.044164531 0.963 14810106
0.25011435 0.044164531 0.963 14482426
0.25383747 0.044164531 0.963 13958394
0.20778339 0.048440769 0.97399998 16186363
0.21154906 0.048440769 0.97399998 16055290
0.21531472 0.048440769 0.97399998 15858426
0.21840559 0.048291568 0.97099996 15661818
0.22215965 0.048291568 0.97099996 15465210
0.2259137 0.048291568 0.97099996 15203066
0.2289582 0.048142366 0.96799999 14875386
0.23221986 0.048042897 0.96599996 14613242
0.2359546 0.048042897 0.96599996 14351097
0.23968932 0.048042897 0.96599996 14219769
0.24266809 0.047893699 0.963 14416890
0.24639122 0.047893699 0.963 14679034
0.25011435 0.047893699 0.963 14351099
0.25304669 0.047744498 0.95999998 14351611
0.20778339 0.052212533 0.97399998 16120827
0.21154906 0.052212533 0.97399998 15989754
0.21531472 0.052212533 0.97399998 15858682
0.21840559 0.052051716 0.97099996 15661818
0.22215965 0.052051716 0.97099996 15399674
0.2259137 0.052051716 0.97099996 15137530
0.2289582 0.051890898 0.96799999 14875386
0.23270066 0.051890898 0.96799999 14547706
0.2359546 0.051783681 0.96599996 14220026
0.23968932 0.051783681 0.96599996 14089210
0.24342406 0.051783681 0.96599996 14022906
0.24639122 0.051622868 0.963 14286074
0.25011435 0.051622868 0.963 14088955
0.25383747 0.051622868 0.963 14352123
0.20778339 0.055984296 0.97399998 16055290
0.21089748 0.05581186 0.97099996 15989754
0.21465153 0.05581186 0.97099996 15792890
0.21840559 0.05581186 0.97099996 15530746
0.22215965 0.05581186 0.97099996 15399674
0.2259137 0.05581186 0.97099996 15137530
0.2289582 0.055639423 0.96799999 14875386
0.23270066 0.055639423 0.96799999 14613242
0.2359546 0.055524468 0.96599996 14285561
0.23968932 0.055524468 0.96599996 14088697
0.24342406 0.055524468 0.96599996 13761274
0.24639122 0.055352032 0.963 13695482
0.25011435 0.055352032 0.963 13630459
0.25383747 0.055352032 0.963 14024445
0.20778339 0.059756063 0.97399998 15989754
0.21154906 0.059756063 0.97399998 15858682
0.21531472 0.059756063 0.97399998 15661818
0.21840559 0.059572008 0.97099996 15268602
0.22215965 0.059572008 0.97099996 15465210
0.2259137 0.059572008 0.97099996 15137530
0.2289582 0.059387956 0.96799999 14809850
0.23270066 0.059387956 0.96799999 14613497
0.2359546 0.059265252 0.96599996 14350585
0.23968932 0.059265252 0.96599996 14089209
0.24342406 0.059265252 0.96599996 13761530
0.24639122 0.059081201 0.963 13433594
0.25011435 0.059081201 0.963 13236474
0.25304669 0.058897145 0.95999998 13498875
0.20778339 0.06352783 0.97399998 15858682
0.21154906 0.06352783 0.97399998 15727354
0.21531472 0.06352783 0.97399998 15530746
0.21840559 0.063332155 0.97099996 15203066
0.22215965 0.063332155 0.97099996 15399674
0.2259137 0.063332155 0.97099996 15071994
0.2289582 0.063136481 0.96799999 14744314
0.23270066 0.063136481 0.96799999 14482170
0.2359546 0.063006036 0.96599996 14285562
0.23968932 0.063006036 0.96599996 14023930
0.24342406 0.063006036 0.96599996 13760762
0.24639122 0.062810361 0.963 13367033
0.25011435 0.062810361 0.963 12972282
0.25304669 0.062614694 0.95999998 12905724
0.22215965 0.067092299 0.97099996 15137530
0.2259137 0.067092299 0.97099996 15006458
0.2289582 0.066885017 0.96799999 14744314
0.23270066 0.066885017 0.96799999 14482170
0.2359546 0.066746816 0.96599996 14285562
0.23968932 0.066746816 0.96599996 14023418
0.24266809 0.066539533 0.963 13695994
0.24639122 0.066539533 0.963 13302010
0.25011435 0.066539533 0.963 12709627
0.25304669 0.066332243 0.95999998 12578045
0.22215965 0.070852444 0.97099996 15071994
0.2259137 0.070852444 0.97099996 14875386
0.2289582 0.070633546 0.96799999 14679034
0.23270066 0.070633546 0.96799999 14416634
0.2359546 0.070487604 0.96599996 14285306
0.23968932 0.070487604 0.96599996 13958394
0.24266809 0.070268698 0.963 13564154
0.24639122 0.070268698 0.963 13105147
0.25011435 0.070268698 0.963 12578044
0.22521573 0.074382074 0.96799999 14744314
0.2289582 0.074382074 0.96799999 14482169
0.23270066 0.074382074 0.96799999 14285305
0.23644312 0.074382074 0.96799999 14220538
0.23968932 0.074228384 0.96599996 13892090
0.24266809 0.073997863 0.963 13498618
0.24639122 0.073997863 0.963 13105146
0.25011435 0.073997863 0.963 12774908
0.22215965 0.078372739 0.97099996 14678778
0.22521573 0.078130595 0.96799999 14482170
0.2289582 0.078130595 0.96799999 14285818
0.23270066 0.078130595 0.96799999 14220538
0.23644312 0.078130595 0.96799999 14023161
0.23968932 0.077969179 0.96599996 13695737
0.24342406 0.077969179 0.96599996 13367546
0.24639122 0.077727035 0.963 12972538
0.25011435 0.077727035 0.963 12905980
0.22521573 0.081879131 0.96799999 14285818
0.22848514 0.081709959 0.96599996 14088954
0.23270066 0.081879131 0.96799999 14023418
0.23644312 0.081879131 0.96799999 13695738
0.23968932 0.081709959 0.96599996 13434107
0.24342406 0.081709959 0.96599996 13170427
0.24639122 0.081456199 0.963 12775931
0.25011435 0.081456199 0.963 12774908
0.23077752 -0.060064439 0.95999998 15530746
0.23400053 -0.059939306 0.958 15661818
0.23770434 -0.059939306 0.958 15596282
0.24140814 -0.059939306 0.958 32307962
0.24434437 -0.059751604 0.95499998 32111354
0.24803656 -0.059751604 0.95499998 31980282
0.25172877 -0.059751604 0.95499998 31914746
0.25542098 -0.059751604 0.95499998 32111866
0.25911316 -0.059751604 0.95499998 31457020
0.26225498 -0.059626468 0.95299995 31653630
0.26593944 -0.059626468 0.95299995 31784702
0.26877517 -0.059438769 0.94999999 32243454
0.27244803 -0.059438769 0.94999999 31325950
0.23448904 -0.05634689 0.95999998 16580349
0.23770434 -0.056229502 0.958 33029373
0.24140814 -0.056229502 0.958 32832764
0.24434437 -0.056053415 0.95499998 32373499
0.24803656 -0.056053415 0.95499998 32111354
0.25172877 -0.056053415 0.95499998 31980282
0.25542098 -0.056053415 0.95499998 32111353
0.25911316 -0.056053415 0.95499998 31521529
0.26225498 -0.055936024 0.95299995 31192568
0.26593944 -0.055936024 0.95299995 30406136
0.26877517 -0.055759944 0.94999999 29424379
0.27244803 -0.055759944 0.94999999 28042749
0.23448904 -0.05262934 0.95999998 16711422
0.23770434 -0.052519698 0.958 16711422
0.24140814 -0.052519698 0.958 33488638
0.24434437 -0.05235523 0.95499998 33488638
0.24803656 -0.05235523 0.95499998 33488638
0.25120157 -0.052245583 0.95299995 33488638
0.25542098 -0.05235523 0.95499998 33423102
0.25911316 -0.05235523 0.95499998 33357565
0.26225498 -0.052245583 0.95299995 32833021
0.26593944 -0.052245583 0.95299995 31849981
0.26962394 -0.052245583 0.95299995 30342909
0.27244803 -0.052081116 0.94999999 27835640
0.23448904 -0.048911788 0.95999998 16711422
0.23770434 -0.04880989 0.958 16711422
0.24140814 -0.04880989 0.958 16580350
0.25911316 -0.048657041 0.95499998 16711422
0.26225498 -0.048555139 0.95299995 16711422
0.26593944 -0.048555139 0.95299995 33488638
0.26962394 -0.048555139 0.95299995 33488638
0.27244803 -0.048402291 0.94999999 32308990
0.26225498 -0.044864696 0.95299995 16514814
0.26593944 -0.044864696 0.95299995 16580350
0.26962394 -0.044864696 0.95299995 16318206
0.27244803 -0.044723466 0.94999999 14941950
0.26225498 -0.041174255 0.95299995 16514814
0.26593944 -0.041174255 0.95299995 16580349
0.26962394 -0.041174255 0.95299995 16318205
0.27244803 -0.041044645 0.94999999 13489148
0.26593944 -0.037483811 0.95299995 16711422
0.26962394 -0.037483811 0.95299995 16711422
0.27244803 -0.03736582 0.94999999 31454717
0.26593944 -0.033793371 0.95299995 16711422
0.26962394 -0.033793371 0.95299995 16711422
0.27244803 -0.033686992 0.94999999 32964350
0.23894496 -0.030418806 0.963 16711422
0.26593944 -0.030102929 0.95299995 16711422
0.26877517 -0.030008169 0.94999999 16711422
0.27244803 -0.030008169 0.94999999 32308476
0.23820058 -0.026606493 0.95999998 16711422
0.24191211 -0.026606493 0.95999998 16711422
0.26593944 -0.026412487 0.95299995 16711422
0.26877517 -0.026329342 0.94999999 16711422
0.27244803 -0.026329342 0.94999999 31121905
0.23894496 -0.022960473 0.963 16711422
0.24266809 -0.022960473 0.963 16711422
0.24562365 -0.022888944 0.95999998 16711422
0.26280537 -0.022769731 0.95499998 16711422
0.26593944 -0.022722045 0.95299995 16711422
0.26962394 -0.022722045 0.95299995 16711422
0.27244803 -0.022650518 0.94999999 29674981
0.23894496 -0.019231306 0.963 16711422
0.24266809 -0.019231306 0.963 16711422
0.24639122 -0.019231306 0.963 16711422
0.25011435 -0.019231306 0.963 16711422
0.25857052 -0.019031603 0.95299995 16711422
0.26225498 -0.019031603 0.95299995 16711422
0.26593944 -0.019031603 0.95299995 16711422
0.26962394 -0.019031603 0.95299995 16711422
0.2733084 -0.019031603 0.95299995 28686811
0.23894496 -0.015502138 0.963 16711422
0.24266809 -0.015502138 0.963 16711422
0.24562365 -0.015453844 0.95999998 16711422
0.24933517 -0.015453844 0.95999998 16711422
0.25251955 -0.015421649 0.958 16711422
0.25542098 -0.015373357 0.95499998 16711422
0.25911316 -0.015373357 0.95499998 16711422
0.26225498 -0.01534116 0.95299995 16711422
0.26593944 -0.01534116 0.95299995 16711422
0.26962394 -0.01534116 0.95299995 33357565
0.2733084 -0.01534116 0.95299995 27568585
0.23894496 -0.011772972 0.963 16711422
0.24266809 -0.011772972 0.963 16711422
0.24639122 -0.011772972 0.963 16711422
0.24933517 -0.011736295 0.95999998 16711422
0.25304669 -0.011736295 0.95999998 16711422
0.25622335 -0.011711845 0.958 16711422
0.25911316 -0.011675168 0.95499998 16711422
0.26225498 -0.011650718 0.95299995 16711422
0.26593944 -0.011650718 0.95299995 16711422
0.26962394 -0.011650718 0.95299995 33226494
0.23894496 -0.0080438042 0.963 16711422
0.24266809 -0.0080438042 0.963 16711422
0.24562365 -0.008018746 0.95999998 16711422
0.24881575 -0.00800204 0.958 16711422
0.25251955 -0.00800204 0.958 16711422
0.25542098 -0.0079769809 0.95499998 16711422
0.25911316 -0.0079769809 0.95499998 16711422
0.26225498 -0.0079602757 0.95299995 16711422
0.26593944 -0.0079602757 0.95299995 16711422
0.26962394 -0.0079602757 0.95299995 32702206
0.23894496 -0.0043146377 0.963 16711422
0.24266809 -0.0043146377 0.963 16711422
0.24639122 -0.0043146377 0.963 16711422
0.24881575 -0.0042922357 0.958 16711422
0.25251955 -0.0042922357 0.958 16711422
0.25622335 -0.0042922357 0.958 16711422
0.25911316 -0.0042787944 0.95499998 16711422
0.26280537 -0.0042787944 0.95499998 16711422
0.26593944 -0.0042698332 0.95299995 16711422
0.26962394 -0.0042698332 0.95299995 31977971
0.23894496 -0.00058547052 0.963 16711422
0.24266809 -0.00058547052 0.963 16711422
0.24562365 -0.00058364664 0.95999998 16711422
0.24933517 -0.00058364664 0.95999998 16711422
0.25304669 -0.00058364664 0.95999998 16711422
0.25622335 -0.00058243074 0.958 16711422
0.25911316 -0.00058060687 0.95499998 16711422
0.26280537 -0.00058060687 0.95499998 16711422
0.26593944 -0.00057939085 0.95299995 16711422
0.26962394 -0.00057939085 0.95299995 30791661
0.23894496 0.0031436963 0.963 16711422
0.24266809 0.0031436963 0.963 16711422
0.24562365 0.0031339028 0.95999998 16711422
0.24933517 0.0031339028 0.95999998 16711422
0.25251955 0.003127374 0.958 16711422
0.25542098 0.0031175804 0.95499998 16711422
0.25911316 0.0031175804 0.95499998 16711422
0.26280537 0.0031175804 0.95499998 16711422
0.26593944 0.0031110514 0.95299995 16711422
0.26962394 0.0031110514 0.95299995 29344218
0.23894496 0.0068728635 0.963 16711422
0.24266809 0.0068728635 0.963 16711422
0.24639122 0.0068728635 0.963 16711422
0.24933517 0.0068514524 0.95999998 16711422
0.25304669 0.0068514524 0.95999998 16711422
0.25622335 0.006837179 0.958 16711422
0.25911316 0.0068157678 0.95499998 16711422
0.26280537 0.0068157678 0.95499998 16711422
0.26649758 0.0068157678 0.95499998 16645886
0.26962394 0.0068014939 0.95299995 27898066
0.23894496 0.010602031 0.963 16711422
0.24266809 0.010602031 0.963 16711422
0.24639122 0.010602031 0.963 16711422
0.24933517 0.010569002 0.95999998 16711422
0.25304669 0.010569002 0.95999998 16711422
0.25622335 0.010546984 0.958 16711422
0.25992715 0.010546984 0.958 16711422
0.26280537 0.010513955 0.95499998 16711422
0.26649758 0.010513955 0.95499998 33292030
0.26962394 0.010491936 0.95299995 26645701
0.23894496 0.014331196 0.963 16711422
0.24266809 0.014331196 0.963 16711422
0.24639122 0.014331196 0.963 16711422
0.25011435 0.014331196 0.963 16711422
0.25304669 0.014286552 0.95999998 16711422
0.25622335 0.014256788 0.958 16711422
0.25992715 0.014256788 0.958 16711422
0.26280537 0.014212142 0.95499998 16711422
0.26649758 0.014212142 0.95499998 33029886
0.26962394 0.014182378 0.95299995 25720507
0.23894496 0.018060364 0.963 16711422
0.24266809 0.018060364 0.963 16711422
0.24639122 0.018060364 0.963 16711422
0.25011435 0.018060364 0.963 16711422
0.25304669 0.018004101 0.95999998 16711422
0.25675824 0.018004101 0.95999998 16711422
0.25992715 0.017966595 0.958 16711422
0.26280537 0.01791033 0.95499998 16711422
0.26593944 0.01787282 0.95299995 32177913
0.26962394 0.01787282 0.95299995 24866968
