# .PCD v0.7 - Point Cloud Data file format
VERSION 0.7
FIELDS x y z rgba
SIZE 4 4 4 4
TYPE F F F U
COUNT 1 1 1 1
WIDTH 1105
HEIGHT 1
VIEWPOINT 0 0 0 1 0 0 0
POINTS 1105
DATA ascii
-0.0012532393 -0.11969109 1.0081999 1115936
0.00069777231 -0.12004725 1.0112 656674
0.0026525131 -0.12004725 1.0112 524580
0.0045935852 -0.11969109 1.0081999 393521
0.0065425267 -0.11969109 1.0081999 16974142
0.0084914686 -0.11969109 1.0081999 16843068
0.01044041 -0.11969109 1.0081999 16843065
0.012389352 -0.11969109 1.0081999 16843073
0.014338293 -0.11969109 1.0081999 16843082
-0.032693688 -0.11867324 1.0161999 23942992
-0.030729277 -0.11867324 1.0161999 20515377
-0.028849792 -0.11902359 1.0192 19794707
-0.026879586 -0.11902359 1.0192 2299166
-0.024909381 -0.11902359 1.0192 2299177
-0.022939175 -0.11902359 1.0192 2299432
-0.020907247 -0.11867324 1.0161999 2168103
-0.01894284 -0.11867324 1.0161999 2037028
-0.01692831 -0.11832289 1.0131999 2103074
-0.014969703 -0.11832289 1.0131999 2169377
-0.013011096 -0.11832289 1.0131999 2102816
-0.011052489 -0.11832289 1.0131999 2037024
-0.0090759322 -0.11808933 1.0112 2037281
-0.0071211909 -0.11808933 1.0112 2037540
-0.00516645 -0.11808933 1.0112 2037032
-0.0032117094 -0.11808933 1.0112 2037034
-0.0012569685 -0.11808933 1.0112 1708844
0.00069570221 -0.11773899 1.0081999 1446687
0.0026525131 -0.11808933 1.0112 1315091
0.0045935852 -0.11773899 1.0081999 1249568
0.0065425267 -0.11773899 1.0081999 1118510
0.0084914686 -0.11773899 1.0081999 1053214
0.01044041 -0.11773899 1.0081999 1051918
0.012389352 -0.11773899 1.0081999 1051406
0.014338293 -0.11773899 1.0081999 985102
0.016287234 -0.11773899 1.0081999 984328
0.018181914 -0.11738865 1.0052 17761282
0.020125058 -0.11738865 1.0052 17760515
0.022068199 -0.11738865 1.0052 17563908
0.02393968 -0.11703831 1.0022 17301772
0.025877023 -0.11703831 1.0022 17498389
0.027731106 -0.11668796 0.99919999 17695007
-0.034760408 -0.11705019 1.0192 27429241
-0.032790203 -0.11705019 1.0192 23747412
-0.030729277 -0.11670566 1.0161999 20124726
-0.028849792 -0.11705019 1.0192 20057368
-0.026879586 -0.11705019 1.0192 3282723
-0.024909381 -0.11705019 1.0192 3021359
-0.022939175 -0.11705019 1.0192 2824493
-0.020907247 -0.11670566 1.0161999 2627627
-0.01894284 -0.11670566 1.0161999 2431786
-0.016978433 -0.11670566 1.0161999 2497832
-0.014969703 -0.11636111 1.0131999 2563112
-0.013011096 -0.11636111 1.0131999 2496807
-0.011052489 -0.11636111 1.0131999 2431528
-0.0090938825 -0.11636111 1.0131999 2366250
-0.0071352758 -0.11636111 1.0131999 2365996
-0.0051766685 -0.11636111 1.0131999 2365999
-0.0032117094 -0.11613142 1.0112 2431535
-0.0012569685 -0.11613142 1.0112 2300463
0.00069777231 -0.11613142 1.0112 2234407
0.0026525131 -0.11613142 1.0112 2168607
0.0045935852 -0.11578689 1.0081999 2168358
0.0065425267 -0.11578689 1.0081999 2102829
0.0084914686 -0.11578689 1.0081999 2037282
0.01044041 -0.11578689 1.0081999 2037272
0.012389352 -0.11578689 1.0081999 2037273
0.014338293 -0.11578689 1.0081999 1971738
0.016287234 -0.11578689 1.0081999 1971478
0.018181914 -0.11544237 1.0052 1971474
0.020125058 -0.11544237 1.0052 1970706
0.022068199 -0.11544237 1.0052 1511955
0.024011342 -0.11544237 1.0052 1051926
0.025954485 -0.11544237 1.0052 1378842
0.027814366 -0.11509782 1.0022 1771292
0.029662648 -0.11475329 0.99919999 1245983
0.031594191 -0.11475329 0.99919999 721450
0.033525739 -0.11475329 0.99919999 524854
0.03545728 -0.11475329 0.99919999 327992
0.037388824 -0.11475329 0.99919999 16974139
0.039320372 -0.11475329 0.99919999 16843069
0.041251913 -0.11475329 0.99919999 16843072
0.043183457 -0.11475329 0.99919999 16843077
0.045114998 -0.11475329 0.99919999 16843083
-0.034760408 -0.11507679 1.0192 27102077
-0.032693688 -0.11473806 1.0161999 23615321
-0.030729277 -0.11473806 1.0161999 20190779
-0.028849792 -0.11507679 1.0192 20256030
-0.026879586 -0.11507679 1.0192 3547689
-0.024909381 -0.11507679 1.0192 3088949
-0.022939175 -0.11507679 1.0192 2696754
-0.020968968 -0.11507679 1.0192 2563120
-0.018998764 -0.11507679 1.0192 2435375
-0.016978433 -0.11473806 1.0161999 2566447
-0.015014028 -0.11473806 1.0161999 2697519
-0.013011096 -0.11439934 1.0131999 2761775
-0.011052489 -0.11439934 1.0131999 2827313
-0.0090938825 -0.11439934 1.0131999 2892851
-0.0071352758 -0.11439934 1.0131999 3024437
-0.0051766685 -0.11439934 1.0131999 2958135
-0.0032117094 -0.11417352 1.0112 2957876
-0.0012569685 -0.11417352 1.0112 2826802
0.00069777231 -0.11417352 1.0112 2761519
0.0026525131 -0.11417352 1.0112 2761260
0.0045935852 -0.11383479 1.0081999 2761260
0.0065425267 -0.11383479 1.0081999 2563885
0.0084914686 -0.11383479 1.0081999 2432551
0.01044041 -0.11383479 1.0081999 2498082
0.012389352 -0.11383479 1.0081999 2498596
0.014338293 -0.11383479 1.0081999 2431782
0.016287234 -0.11383479 1.0081999 2431268
0.018236177 -0.11383479 1.0081999 2365730
0.020125058 -0.11349607 1.0052 2365986
0.022068199 -0.11349607 1.0052 2103330
0.024011342 -0.11349607 1.0052 1840928
0.025954485 -0.11349607 1.0052 2035999
0.027814366 -0.11315735 1.0022 2298138
0.029662648 -0.11281861 0.99919999 1839381
0.031689055 -0.11315735 1.0022 1446179
0.033626396 -0.11315735 1.0022 1315121
0.03545728 -0.11281861 0.99919999 1249828
0.037501082 -0.11315735 1.0022 1184023
0.039438423 -0.11315735 1.0022 1118486
0.041375767 -0.11315735 1.0022 1117205
0.043313108 -0.11315735 1.0022 1115921
0.045114998 -0.11281861 0.99919999 984590
0.047046546 -0.11281861 0.99919999 852744
0.048978087 -0.11281861 0.99919999 17498627
0.050909631 -0.11281861 0.99919999 17367298
0.052682523 -0.11247988 0.99619997 17498370
0.054608267 -0.11247988 0.99619997 17694984
0.056534015 -0.11247988 0.99619997 17367310
-0.034760408 -0.11310339 1.0192 26837885
-0.032790203 -0.11310339 1.0192 23549273
-0.030819997 -0.11310339 1.0192 20261950
-0.028934712 -0.11343631 1.0222 20387107
-0.026879586 -0.11310339 1.0192 3808549
-0.024909381 -0.11310339 1.0192 3154983
-0.022939175 -0.11310339 1.0192 19340320
-0.020968968 -0.11310339 1.0192 19274009
-0.018998764 -0.11310339 1.0192 19273240
-0.017028557 -0.11310339 1.0192 19469592
-0.015014028 -0.11277047 1.0161999 19667736
-0.013049622 -0.11277047 1.0161999 3024664
-0.011052489 -0.11243755 1.0131999 3221020
-0.0090938825 -0.11243755 1.0131999 3483937
-0.0071352758 -0.11243755 1.0131999 3746088
-0.0051766685 -0.11243755 1.0131999 3615024
-0.0032117094 -0.11221561 1.0112 3483954
-0.0012569685 -0.11221561 1.0112 3418676
0.00069777231 -0.11221561 1.0112 3352884
0.0026525131 -0.11221561 1.0112 3352629
0.0045935852 -0.11188269 1.0081999 3352116
0.0065425267 -0.11188269 1.0081999 3089458
0.0084914686 -0.11188269 1.0081999 2893102
0.01044041 -0.11188269 1.0081999 2958890
0.012389352 -0.11188269 1.0081999 3023660
0.014338293 -0.11188269 1.0081999 2956846
0.016287234 -0.11188269 1.0081999 2891052
0.018236177 -0.11188269 1.0081999 2825003
0.020125058 -0.11154978 1.0052 2825002
0.022068199 -0.11154978 1.0052 2693929
0.024011342 -0.11154978 1.0052 2627880
0.025954485 -0.11154978 1.0052 2691878
0.027814366 -0.11121686 1.0022 2823203
0.029751711 -0.11121686 1.0022 2495776
0.031689055 -0.11121686 1.0022 2234408
0.033626396 -0.11121686 1.0022 2169392
0.03545728 -0.11088394 0.99919999 2168872
0.037388824 -0.11088394 0.99919999 2168608
0.039320372 -0.11088394 0.99919999 2234399
0.041251913 -0.11088394 0.99919999 2234911
0.043183457 -0.11088394 0.99919999 2234910
0.045114998 -0.11088394 0.99919999 1973021
0.047046546 -0.11088394 0.99919999 1710104
0.048978087 -0.11088394 0.99919999 1447699
0.050909631 -0.11088394 0.99919999 1185039
0.052841175 -0.11088394 0.99919999 1447180
0.054608267 -0.11055101 0.99619997 1773843
0.056534015 -0.11055101 0.99619997 1183771
0.058459755 -0.11055101 0.99619997 592671
0.060385503 -0.11055101 0.99619997 460579
0.062311243 -0.11055101 0.99619997 329004
0.064236991 -0.11055101 0.99619997 197173
0.066162735 -0.11055101 0.99619997 16843062
0.068088479 -0.11055101 0.99619997 16843063
0.069803387 -0.1102181 0.9932 16843070
-0.034760408 -0.11112999 1.0192 26508925
-0.032790203 -0.11112999 1.0192 23220057
-0.030819997 -0.11112999 1.0192 20003393
-0.028849792 -0.11112999 1.0192 20061481
-0.026879586 -0.11112999 1.0192 20126497
-0.024909381 -0.11112999 1.0192 20782362
-0.022939175 -0.11112999 1.0192 21433358
-0.020907247 -0.11080288 1.0161999 21630210
-0.01894284 -0.11080288 1.0161999 21889793
-0.016978433 -0.11080288 1.0161999 21562113
-0.015014028 -0.11080288 1.0161999 21233921
-0.013049622 -0.11080288 1.0161999 20644097
-0.011085215 -0.11080288 1.0161999 20054280
-0.0091208089 -0.11080288 1.0161999 19532560
-0.0071564028 -0.11080288 1.0161999 19075100
-0.0051766685 -0.11047576 1.0131999 18815529
-0.0032180618 -0.11047576 1.0131999 18557999
-0.0012594545 -0.11047576 1.0131999 18492214
0.00069915241 -0.11047576 1.0131999 18494010
0.0026525131 -0.1102577 1.0112 1716799
0.0046072542 -0.1102577 1.0112 1782331
0.006561995 -0.1102577 1.0112 2043960
0.0085167354 -0.1102577 1.0112 2240821
0.01044041 -0.10993058 1.0081999 2567218
0.012389352 -0.10993058 1.0081999 2895412
0.014338293 -0.10993058 1.0081999 2960694
0.016287234 -0.10993058 1.0081999 3026741
0.018236177 -0.10993058 1.0081999 3222324
0.020125058 -0.10960349 1.0052 3353138
0.02213406 -0.10993058 1.0081999 3286833
0.024011342 -0.10960349 1.0052 3221295
0.025954485 -0.10960349 1.0052 3155758
0.027814366 -0.10927638 1.0022 3155756
0.029751711 -0.10927638 1.0022 2958379
0.031689055 -0.10927638 1.0022 2761517
0.033727057 -0.10960349 1.0052 2761264
0.03545728 -0.10894927 0.99919999 2761260
0.037388824 -0.10894927 0.99919999 2694953
0.039320372 -0.10894927 0.99919999 2629161
0.041251913 -0.10894927 0.99919999 2563625
0.043183457 -0.10894927 0.99919999 2563883
0.045114998 -0.10894927 0.99919999 2432813
0.047046546 -0.10894927 0.99919999 2301992
0.048978087 -0.10894927 0.99919999 2039331
0.050909631 -0.10894927 0.99919999 1842716
0.052841175 -0.10894927 0.99919999 1972502
0.05477272 -0.10894927 0.99919999 2103071
0.056534015 -0.10862215 0.99619997 1775400
0.058459755 -0.10862215 0.99619997 1448230
0.060385503 -0.10862215 0.99619997 1316644
0.062311243 -0.10862215 0.99619997 1185578
0.064236991 -0.10862215 0.99619997 1119280
0.066162735 -0.10862215 0.99619997 1119260
0.068088479 -0.10862215 0.99619997 1052937
0.070014223 -0.10862215 0.99619997 1052944
0.071723327 -0.10829505 0.9932 920599
0.073643275 -0.10829505 0.9932 853776
0.075563222 -0.10829505 0.9932 656906
0.07748317 -0.10829505 0.9932 393989
0.07940311 -0.10829505 0.9932 17367553
0.081077412 -0.10796793 0.99019998 17563905
0.082991555 -0.10796793 0.99019998 17367298
0.084905706 -0.10796793 0.99019998 17170699
0.08681985 -0.10796793 0.99019998 17367317
0.08855477 -0.10774986 0.98819995 17563939
0.090465046 -0.10774986 0.98819995 17629490
0.092375331 -0.10774986 0.98819995 17695040
-0.034760408 -0.10915659 1.0192 26244466
-0.032693688 -0.10883529 1.0161999 22955077
-0.030819997 -0.10915659 1.0192 19738427
-0.028934712 -0.10947789 1.0222 2956848
-0.026879586 -0.10915659 1.0192 19736136
-0.024909381 -0.10915659 1.0192 21644128
-0.022939175 -0.10915659 1.0192 23614566
-0.020968968 -0.10915659 1.0192 24077163
-0.018998764 -0.10915659 1.0192 24534129
-0.017028557 -0.10915659 1.0192 23679864
-0.015014028 -0.10883529 1.0161999 22887794
-0.013049622 -0.10883529 1.0161999 21496172
-0.011085215 -0.10883529 1.0161999 20119908
-0.0091208089 -0.10883529 1.0161999 18874717
-0.0071564028 -0.10883529 1.0161999 17695052
-0.0051766685 -0.10851399 1.0131999 17236283
-0.0032180618 -0.10851399 1.0131999 16843053
-0.0012594545 -0.10851399 1.0131999 16843039
0.00069915241 -0.10851399 1.0131999 16843044
0.0026525131 -0.10829979 1.0112 16908586
0.0046072542 -0.10829979 1.0112 17040932
0.006561995 -0.10829979 1.0112 17695518
0.0085167354 -0.10829979 1.0112 18420763
0.01044041 -0.10797849 1.0081999 18946585
0.012389352 -0.10797849 1.0081999 19537434
0.014338293 -0.10797849 1.0081999 2959388
0.016287234 -0.10797849 1.0081999 3221536
0.018236177 -0.10797849 1.0081999 3551012
0.020185119 -0.10797849 1.0081999 3943209
0.02213406 -0.10797849 1.0081999 3877934
0.024083 -0.10797849 1.0081999 3812400
0.025954485 -0.1076572 1.0052 3682098
0.027814366 -0.1073359 1.0022 3550261
0.029751711 -0.1073359 1.0022 3418936
0.031689055 -0.1073359 1.0022 3353400
0.033727057 -0.1076572 1.0052 3353400
0.035670199 -0.1076572 1.0052 3352885
0.037501082 -0.1073359 1.0022 3155761
0.039320372 -0.10701459 0.99919999 3024433
0.041251913 -0.10701459 0.99919999 2958896
0.043313108 -0.1073359 1.0022 2958640
0.045250457 -0.1073359 1.0022 2892849
0.047046546 -0.10701459 0.99919999 2892590
0.048978087 -0.10701459 0.99919999 2695723
0.050909631 -0.10701459 0.99919999 2564134
0.052841175 -0.10701459 0.99919999 2497825
0.05477272 -0.10701459 0.99919999 2497574
0.056704264 -0.10701459 0.99919999 2432044
0.058459755 -0.10669329 0.99619997 2366251
0.060385503 -0.10669329 0.99619997 2169642
0.062311243 -0.10669329 0.99619997 2038829
0.064236991 -0.10669329 0.99619997 2104624
0.066162735 -0.10669329 0.99619997 2234916
0.068088479 -0.10669329 0.99619997 2103063
0.070014223 -0.10669329 0.99619997 2037532
0.071723327 -0.10637198 0.9932 1840930
0.073643275 -0.10637198 0.9932 1709854
0.075563222 -0.10637198 0.9932 1251867
0.07748317 -0.10637198 0.9932 792088
0.07940311 -0.10637198 0.9932 1119509
0.08132305 -0.10637198 0.9932 1512724
0.082991555 -0.10605069 0.99019998 1119507
0.084905706 -0.10605069 0.99019998 790290
0.08681985 -0.10605069 0.99019998 17959954
0.08855477 -0.10583649 0.98819995 18352416
0.090465046 -0.10583649 0.98819995 17630255
0.092375331 -0.10583649 0.98819995 16909105
0.094285607 -0.10583649 0.98819995 16908594
0.096195891 -0.10583649 0.98819995 16908610
0.098106168 -0.10583649 0.98819995 16974162
0.099692576 -0.10549376 0.98499995 17039704
0.10159667 -0.10549376 0.98499995 16908638
0.10350076 -0.10549376 0.98499995 16843106
-0.034760408 -0.1071832 1.0192 25981031
-0.032693688 -0.1068677 1.0161999 22822194
-0.030819997 -0.1071832 1.0192 19670069
-0.028849792 -0.1071832 1.0192 19668792
-0.026879586 -0.1071832 1.0192 19671663
-0.024909381 -0.1071832 1.0192 22176167
-0.022939175 -0.1071832 1.0192 24686526
-0.020968968 -0.1071832 1.0192 26327509
-0.018998764 -0.1071832 1.0192 27972578
-0.017028557 -0.1071832 1.0192 28038895
-0.015058353 -0.1071832 1.0192 28107235
-0.013088147 -0.1071832 1.0192 27382231
-0.011117941 -0.1071832 1.0192 26726081
-0.0091208089 -0.1068677 1.0161999 25996459
-0.0071564028 -0.1068677 1.0161999 25337212
-0.0051766685 -0.10655221 1.0131999 25067085
-0.0032180618 -0.10655221 1.0131999 24862507
-0.0012631838 -0.1068677 1.0161999 24595977
0.00070122257 -0.1068677 1.0161999 24390415
0.0026577592 -0.10655221 1.0131999 23734549
0.0046163662 -0.10655221 1.0131999 23077388
0.006561995 -0.10634188 1.0112 23010820
0.0085167354 -0.10634188 1.0112 23005698
0.01044041 -0.10602638 1.0081999 22285569
0.012389352 -0.10602638 1.0081999 21627649
0.014338293 -0.10602638 1.0081999 20840962
0.016287234 -0.10602638 1.0081999 20054283
0.018236177 -0.10602638 1.0081999 19860501
0.020185119 -0.10602638 1.0081999 19730720
0.02213406 -0.10602638 1.0081999 19209004
0.024083 -0.10602638 1.0081999 18754865
0.026031943 -0.10602638 1.0081999 18754870
0.027897626 -0.1057109 1.0052 2044478
0.029751711 -0.10539541 1.0022 2371910
0.031783912 -0.1057109 1.0052 2634563
0.033727057 -0.1057109 1.0052 2830657
0.035670199 -0.1057109 1.0052 3027517
0.037501082 -0.10539541 1.0022 3027514
0.039556481 -0.1057109 1.0052 3027513
0.041375767 -0.10539541 1.0022 3091768
0.043313108 -0.10539541 1.0022 3223094
0.045250457 -0.10539541 1.0022 3354165
0.047046546 -0.10507991 0.99919999 3551028
0.048978087 -0.10507991 0.99919999 3353395
0.050909631 -0.10507991 0.99919999 3222063
0.052841175 -0.10507991 0.99919999 3090988
0.05477272 -0.10507991 0.99919999 3025454
0.056534015 -0.10476442 0.99619997 2958897
0.058459755 -0.10476442 0.99619997 2892849
0.060385503 -0.10476442 0.99619997 2761777
0.062311243 -0.10476442 0.99619997 2696497
0.064236991 -0.10476442 0.99619997 2696497
0.066162735 -0.10476442 0.99619997 2762539
0.068088479 -0.10476442 0.99619997 2630694
0.069803387 -0.10444893 0.9932 2499369
0.071723327 -0.10444893 0.9932 2433325
0.073643275 -0.10444893 0.9932 2301997
0.075563222 -0.10444893 0.9932 2039341
0.07748317 -0.10444893 0.9932 1711403
0.07940311 -0.10444893 0.9932 1908009
0.08132305 -0.10444893 0.9932 2039078
0.082991555 -0.10413343 0.99019998 1841956
0.084905706 -0.10413343 0.99019998 1645081
0.08681985 -0.10413343 0.99019998 18618639
0.08855477 -0.1039231 0.98819995 18880798
0.090465046 -0.1039231 0.98819995 18420525
0.092375331 -0.1039231 0.98819995 18026785
0.094285607 -0.1039231 0.98819995 18157590
0.096195891 -0.1039231 0.98819995 18288689
0.098106168 -0.1039231 0.98819995 18421837
0.10001645 -0.1039231 0.98819995 18555467
0.10159667 -0.10358658 0.98499995 19411017
0.10383701 -0.1039231 0.98819995 20267849
0.10574729 -0.1039231 0.98819995 21052490
0.10730895 -0.10358658 0.98499995 21837105
0.10921305 -0.10358658 0.98499995 21505561
0.11111714 -0.10358658 0.98499995 21169169
0.11302123 -0.10358658 0.98499995 20841225
-0.036730614 -0.1052098 1.0192 27629459
-0.034760408 -0.1052098 1.0192 25716066
-0.032693688 -0.10490011 1.0161999 22688048
-0.030729277 -0.10490011 1.0161999 19670322
-0.028849792 -0.1052098 1.0192 19668020
-0.026879586 -0.1052098 1.0192 19671399
-0.0249827 -0.10551948 1.0222 22706075
-0.023006696 -0.10551948 1.0222 25730750
-0.021030692 -0.10551948 1.0222 28564448
-0.019054687 -0.10551948 1.0222 31380715
-0.017028557 -0.1052098 1.0192 32308982
-0.015058353 -0.1052098 1.0192 33292016
-0.013088147 -0.1052098 1.0192 33292010
-0.011117941 -0.1052098 1.0192 33357535
-0.0091208089 -0.10490011 1.0161999 33160916
-0.0071564028 -0.10490011 1.0161999 32964285
-0.0051919967 -0.10490011 1.0161999 32898725
-0.0032275899 -0.10490011 1.0161999 32898708
-0.0012631838 -0.10490011 1.0161999 32439939
0.00070122257 -0.10490011 1.0161999 31972742
0.0026577592 -0.10459042 1.0131999 30595209
0.0046163662 -0.10459042 1.0131999 29210245
0.006561995 -0.10438397 1.0112 28419969
0.0085167354 -0.10438397 1.0112 27620736
0.01044041 -0.10407428 1.0081999 25704575
0.012389352 -0.10407428 1.0081999 23801458
0.014338293 -0.10407428 1.0081999 21954917
0.016287234 -0.10407428 1.0081999 20119905
0.018236177 -0.10407428 1.0081999 19399006
0.020185119 -0.10407428 1.0081999 18743642
0.02213406 -0.10407428 1.0081999 17826135
0.024011342 -0.10376461 1.0052 16908603
0.026031943 -0.10407428 1.0081999 17105183
0.027980885 -0.10407428 1.0081999 17369385
0.029840769 -0.10376461 1.0052 18023476
0.031783912 -0.10376461 1.0052 18747439
0.033727057 -0.10376461 1.0052 19075371
0.035670199 -0.10376461 1.0052 19470119
0.03761334 -0.10376461 1.0052 19602468
0.039556481 -0.10376461 1.0052 19800360
0.041499626 -0.10376461 1.0052 3288107
0.043442767 -0.10376461 1.0052 3550251
0.045250457 -0.10345493 1.0022 3878698
0.047046546 -0.10314524 0.99919999 4206381
0.048978087 -0.10314524 0.99919999 4010032
0.050909631 -0.10314524 0.99919999 3878449
0.052841175 -0.10314524 0.99919999 3747634
0.05477272 -0.10314524 0.99919999 3616312
0.056704264 -0.10314524 0.99919999 3484734
0.058459755 -0.10283556 0.99619997 3419197
0.060385503 -0.10283556 0.99619997 3419196
0.062311243 -0.10283556 0.99619997 3419195
0.064236991 -0.10283556 0.99619997 3353658
0.066162735 -0.10283556 0.99619997 3287862
0.068088479 -0.10283556 0.99619997 3156530
0.070014223 -0.10283556 0.99619997 3024946
0.071939975 -0.10283556 0.99619997 2959154
0.073865712 -0.10283556 0.99619997 2958641
0.075791456 -0.10283556 0.99619997 2827057
0.07748317 -0.10252587 0.9932 2695728
0.07940311 -0.10252587 0.9932 2629679
0.08132305 -0.10252587 0.9932 2629422
0.082991555 -0.10221619 0.99019998 2563629
0.084905706 -0.10221619 0.99019998 2497830
0.08681985 -0.10221619 0.99019998 19340320
0.088733993 -0.10221619 0.99019998 19405607
0.090648144 -0.10221619 0.99019998 19274287
0.092375331 -0.10200973 0.98819995 19142954
0.094476432 -0.10221619 0.99019998 19404837
0.096390583 -0.10221619 0.99019998 19734840
0.098304726 -0.10221619 0.99019998 19869772
0.10001645 -0.10200973 0.98819995 20065352
0.10192673 -0.10200973 0.98819995 21845572
0.10383701 -0.10200973 0.98819995 23683163
0.10574729 -0.10200973 0.98819995 25267058
0.10765757 -0.10200973 0.98819995 26836327
0.10921305 -0.1016794 0.98499995 26180445
0.11111714 -0.1016794 0.98499995 25587802
0.11302123 -0.1016794 0.98499995 24866136
0.11492532 -0.1016794 0.98499995 24205644
0.1164736 -0.10136972 0.98199999 23220544
0.1183719 -0.10136972 0.98199999 22298696
0.12027019 -0.10136972 0.98199999 22165328
0.12216849 -0.10136972 0.98199999 22031180
0.12406678 -0.10136972 0.98199999 20651592
-0.036730614 -0.1032364 1.0192 27367307
-0.034760408 -0.1032364 1.0192 25320285
-0.032693688 -0.10293252 1.0161999 22359343
-0.030729277 -0.10293252 1.0161999 19473967
-0.028849792 -0.1032364 1.0192 19473968
-0.026879586 -0.1032364 1.0192 19540320
-0.024909381 -0.1032364 1.0192 20994192
-0.022939175 -0.1032364 1.0192 22447550
-0.021030692 -0.10354027 1.0222 24355820
-0.019054687 -0.10354027 1.0222 26267125
-0.017078681 -0.10354027 1.0222 27581950
-0.015058353 -0.1032364 1.0192 28966654
-0.013088147 -0.1032364 1.0192 29622014
-0.011117941 -0.1032364 1.0192 30277374
-0.0091208089 -0.10293252 1.0161999 30801662
-0.0071564028 -0.10293252 1.0161999 31391486
-0.0051919967 -0.10293252 1.0161999 31850238
-0.0032275899 -0.10293252 1.0161999 32308990
-0.0012631838 -0.10293252 1.0161999 32308990
0.00070122257 -0.10293252 1.0161999 32374526
0.0026577592 -0.10262864 1.0131999 31850238
0.0046163662 -0.10262864 1.0131999 31260414
0.0065749735 -0.10262864 1.0131999 30932734
0.0085167354 -0.10242606 1.0112 30539518
0.010471476 -0.10242606 1.0112 29622014
0.012389352 -0.10212218 1.0081999 28638947
0.014338293 -0.10212218 1.0081999 27711944
0.016287234 -0.10212218 1.0081999 26727608
0.018236177 -0.10212218 1.0081999 26260136
0.020185119 -0.10212218 1.0081999 25863317
0.02213406 -0.10212218 1.0081999 25133442
0.024083 -0.10212218 1.0081999 24469317
0.026031943 -0.10212218 1.0081999 24005640
0.027980885 -0.10212218 1.0081999 23602197
0.029929826 -0.10212218 1.0081999 23142434
0.031878769 -0.10212218 1.0081999 22744859
0.033827711 -0.10212218 1.0081999 22482709
0.035670199 -0.10181832 1.0052 22218514
0.03761334 -0.10181832 1.0052 22153231
0.039556481 -0.10181832 1.0052 22151959
0.041499626 -0.10181832 1.0052 21104415
0.043442767 -0.10181832 1.0052 20056095
0.045385908 -0.10181832 1.0052 19731488
0.047187798 -0.10151444 1.0022 19471910
0.048978087 -0.10121056 0.99919999 19144493
0.050909631 -0.10121056 0.99919999 18817842
0.052841175 -0.10121056 0.99919999 18687544
0.05477272 -0.10121056 0.99919999 18626113
0.056704264 -0.10121056 0.99919999 1914187
0.058635805 -0.10121056 0.99919999 2046025
0.060567353 -0.10121056 0.99919999 2176327
0.062311243 -0.10090668 0.99619997 2307653
0.064236991 -0.10090668 0.99619997 2437443
0.066162735 -0.10090668 0.99619997 2634304
0.068088479 -0.10090668 0.99619997 2830910
0.070014223 -0.10090668 0.99619997 3027515
0.071939975 -0.10090668 0.99619997 3091768
0.073865712 -0.10090668 0.99619997 3157814
0.075791456 -0.10090668 0.99619997 3288629
0.0777172 -0.10090668 0.99619997 3485237
0.079642944 -0.10090668 0.99619997 3288374
0.08132305 -0.10060281 0.9932 3157302
0.083243005 -0.10060281 0.9932 3090742
0.085162945 -0.10060281 0.9932 19867699
0.08681985 -0.10029894 0.99019998 19801393
0.088733993 -0.10029894 0.99019998 19800881
0.090648144 -0.10029894 0.99019998 19669809
0.092562288 -0.10029894 0.99019998 19604531
0.094476432 -0.10029894 0.99019998 19735861
0.096390583 -0.10029894 0.99019998 19868736
0.098304726 -0.10029894 0.99019998 19868747
0.10001645 -0.10009635 0.98819995 19868741
0.10192673 -0.10009635 0.98819995 20857408
0.10383701 -0.10009635 0.98819995 21915757
0.10574729 -0.10009635 0.98819995 22902170
0.10765757 -0.10009635 0.98819995 23957150
0.10921305 -0.099772215 0.98499995 24152482
0.11111714 -0.099772215 0.98499995 24352420
0.11302123 -0.099772215 0.98499995 24149671
0.11492532 -0.099772215 0.98499995 23954063
0.11682943 -0.099772215 0.98499995 23355768
0.1183719 -0.09946835 0.98199999 22766707
0.12027019 -0.09946835 0.98199999 22897006
0.12216849 -0.09946835 0.98199999 23028061
0.12406678 -0.09946835 0.98199999 22302540
0.12596507 -0.09946835 0.98199999 21580364
0.12786336 -0.09946835 0.98199999 20525645
0.12976167 -0.09946835 0.98199999 19537729
0.13165995 -0.09946835 0.98199999 19010358
0.13315022 -0.099164471 0.97899997 18546980
0.13504273 -0.099164471 0.97899997 18219795
0.13665548 -0.098961897 0.977 17892366
0.13882773 -0.099164471 0.97899997 17695497
-0.036730614 -0.10126299 1.0192 27039879
-0.034760408 -0.10126299 1.0192 24990298
-0.032693688 -0.10096493 1.0161999 22092334
-0.030729277 -0.10096493 1.0161999 19277360
-0.028849792 -0.10126299 1.0192 19342898
-0.026879586 -0.10126299 1.0192 19475293
-0.024909381 -0.10126299 1.0192 19348361
-0.022939175 -0.10126299 1.0192 19223207
-0.021030692 -0.10156107 1.0222 20142790
-0.019054687 -0.10156107 1.0222 21136599
-0.017028557 -0.10126299 1.0192 22912488
-0.015058353 -0.10126299 1.0192 24688367
-0.013088147 -0.10126299 1.0192 25940726
-0.011117941 -0.10126299 1.0192 27188727
-0.0091477353 -0.10126299 1.0192 28507897
-0.0071564028 -0.10096493 1.0161999 29884155
-0.0051919967 -0.10096493 1.0161999 30801662
-0.0032275899 -0.10096493 1.0161999 31719166
-0.0012631838 -0.10096493 1.0161999 32243454
0.00070122257 -0.10096493 1.0161999 32833278
0.0026577592 -0.10066686 1.0131999 33095422
0.0046163662 -0.10066686 1.0131999 33357566
0.0065749735 -0.10066686 1.0131999 33423102
0.0085335812 -0.10066686 1.0131999 33488638
0.010471476 -0.10046815 1.0112 33488638
0.012426217 -0.10046815 1.0112 33488624
0.014380958 -0.10046815 1.0112 33423075
0.0163357 -0.10046815 1.0112 33357531
0.018236177 -0.10017008 1.0081999 33160915
0.020185119 -0.10017008 1.0081999 32964297
0.02213406 -0.10017008 1.0081999 32505536
0.024083 -0.10017008 1.0081999 32042401
0.026031943 -0.10017008 1.0081999 30927747
0.028064145 -0.10046815 1.0112 29868681
0.029929826 -0.10017008 1.0081999 28292240
0.031878769 -0.10017008 1.0081999 26776968
0.033727057 -0.09987203 1.0052 25920128
0.035670199 -0.09987203 1.0052 25064064
0.03761334 -0.09987203 1.0052 24798079
0.039556481 -0.09987203 1.0052 24527732
0.041499626 -0.09987203 1.0052 22151530
0.043442767 -0.09987203 1.0052 19792227
0.045250457 -0.099573962 1.0022 18874717
0.047187798 -0.099573962 1.0022 18022743
0.048978087 -0.099275887 0.99919999 17498449
0.050909631 -0.099275887 0.99919999 16974154
0.052841175 -0.099275887 0.99919999 16908611
0.05477272 -0.099275887 0.99919999 16910649
0.056704264 -0.099275887 0.99919999 17171504
0.058635805 -0.099275887 0.99919999 17433650
0.060567353 -0.099275887 0.99919999 17695796
0.062498894 -0.099275887 0.99919999 18026288
0.064430438 -0.099275887 0.99919999 18353964
0.066162735 -0.098977819 0.99619997 18748966
0.068088479 -0.098977819 0.99619997 19274529
0.070014223 -0.098977819 0.99619997 19800095
0.071939975 -0.098977819 0.99619997 3156765
0.073865712 -0.098977819 0.99619997 3353379
0.075791456 -0.098977819 0.99619997 3812906
0.0777172 -0.098977819 0.99619997 4271665
0.079642944 -0.098977819 0.99619997 3945529
0.081568696 -0.098977819 0.99619997 20459322
0.083243005 -0.098679759 0.9932 20459835
0.085162945 -0.098679759 0.9932 20459068
0.087082893 -0.098679759 0.9932 20327742
0.088733993 -0.098381698 0.99019998 20262202
0.090648144 -0.098381698 0.99019998 20131127
0.092562288 -0.098381698 0.99019998 20065079
0.094476432 -0.098381698 0.99019998 20064824
0.096390583 -0.098381698 0.99019998 20064831
0.098304726 -0.098381698 0.99019998 19867975
0.10021888 -0.098381698 0.99019998 19737153
0.10192673 -0.098182976 0.98819995 19931962
0.10383701 -0.098182976 0.98819995 20135765
0.10574729 -0.098182976 0.98819995 20598641
0.10765757 -0.098182976 0.98819995 21059447
0.10956785 -0.098182976 0.98819995 22044541
0.11111714 -0.097865045 0.98499995 23095937
0.11302123 -0.097865045 0.98499995 23362694
0.11492532 -0.097865045 0.98499995 23685245
0.11682943 -0.097865045 0.98499995 23421044
0.11873352 -0.097865045 0.98499995 23224432
0.12027019 -0.097566977 0.98199999 23618668
0.12216849 -0.097566977 0.98199999 24011106
0.12406678 -0.097566977 0.98199999 23880024
0.12596507 -0.097566977 0.98199999 23812180
0.12786336 -0.097566977 0.98199999 23026000
0.12976167 -0.097566977 0.98199999 22298440
0.13165995 -0.097566977 0.98199999 21246785
0.13355826 -0.097566977 0.98199999 20257841
0.13545655 -0.097566977 0.98199999 19598626
0.13735484 -0.097566977 0.98199999 18943767
0.13882773 -0.097268909 0.97899997 18551309
0.14043273 -0.097070202 0.977 18157590
0.14232138 -0.097070202 0.977 18157599
0.14421 -0.097070202 0.977 18157598
0.14609861 -0.097070202 0.977 17699101
0.14798726 -0.097070202 0.977 17239580
0.14987588 -0.097070202 0.977 17173788
0.15129851 -0.096772134 0.97399998 395305
0.15318133 -0.096772134 0.97399998 17105718
-0.036730614 -0.099289596 1.0192 26773635
-0.034760408 -0.099289596 1.0192 24594520
-0.032693688 -0.098997332 1.0161999 22027310
-0.030729277 -0.098997332 1.0161999 19475761
-0.028849792 -0.099289596 1.0192 19803445
-0.026879586 -0.099289596 1.0192 20131163
-0.024909381 -0.099289596 1.0192 20397954
-0.022939175 -0.099289596 1.0192 20726929
-0.020968968 -0.099289596 1.0192 21387937
-0.018998764 -0.099289596 1.0192 22043578
-0.017028557 -0.099289596 1.0192 23430611
-0.015058353 -0.099289596 1.0192 24865760
-0.013088147 -0.099289596 1.0192 25198830
-0.011117941 -0.099289596 1.0192 25526001
-0.0091208089 -0.098997332 1.0161999 25990901
-0.0071564028 -0.098997332 1.0161999 26516217
-0.0051919967 -0.098997332 1.0161999 26782462
-0.0032371185 -0.099289596 1.0192 27047422
-0.0012631838 -0.098997332 1.0161999 27379710
0.00070122257 -0.098997332 1.0161999 27714302
0.0026577592 -0.098705083 1.0131999 27977726
0.0046163662 -0.098705083 1.0131999 28245758
0.0065749735 -0.098705083 1.0131999 28311294
0.0085335812 -0.098705083 1.0131999 28442366
0.010471476 -0.098510243 1.0112 29163262
0.012426217 -0.098510243 1.0112 29949694
0.014380958 -0.098510243 1.0112 30015230
0.0163357 -0.098510243 1.0112 30080766
0.01829044 -0.098510243 1.0112 30801662
0.020245181 -0.098510243 1.0112 31522558
0.02213406 -0.098217979 1.0081999 31588094
0.024083 -0.098217979 1.0081999 31653630
0.026031943 -0.098217979 1.0081999 31194878
0.027980885 -0.098217979 1.0081999 30736126
0.029929826 -0.098217979 1.0081999 29880318
0.031878769 -0.098217979 1.0081999 29027573
0.033827711 -0.098217979 1.0081999 28433644
0.035776649 -0.098217979 1.0081999 27909358
0.03761334 -0.097925738 1.0052 27775216
0.039674532 -0.098217979 1.0081999 27577810
0.041499626 -0.097925738 1.0052 26656181
0.043442767 -0.097925738 1.0052 25737384
0.045385908 -0.097925738 1.0052 25404571
0.047187798 -0.097633474 1.0022 25008776
0.048978087 -0.097341217 0.99919999 24938358
0.051062483 -0.097633474 1.0022 24934242
0.052841175 -0.097341217 0.99919999 24271183
0.05477272 -0.097341217 0.99919999 23668530
0.056704264 -0.097341217 0.99919999 23143701
0.058635805 -0.097341217 0.99919999 22617371
0.060567353 -0.097341217 0.99919999 22813474
0.062498894 -0.097341217 0.99919999 23007003
0.064430438 -0.097341217 0.99919999 22679317
0.066361986 -0.097341217 0.99919999 22349580
0.068293527 -0.097341217 0.99919999 21957124
0.070014223 -0.097048953 0.99619997 21496323
0.071939975 -0.097048953 0.99619997 20775938
0.073865712 -0.097048953 0.99619997 20120848
0.075791456 -0.097048953 0.99619997 19796511
0.0777172 -0.097048953 0.99619997 19536941
0.079642944 -0.097048953 0.99619997 19079228
0.08132305 -0.096756697 0.9932 18687806
0.083243005 -0.096756697 0.9932 18688320
0.085162945 -0.096756697 0.9932 18625862
0.087082893 -0.096756697 0.9932 18625612
0.089002833 -0.096756697 0.9932 18560580
0.090648144 -0.096464448 0.99019998 18822717
0.092562288 -0.096464448 0.99019998 19019324
0.094476432 -0.096464448 0.99019998 19476795
0.096390583 -0.096464448 0.99019998 19870527
0.098304726 -0.096464448 0.99019998 19936068
0.10021888 -0.096464448 0.99019998 3224380
0.10192673 -0.0962696 0.98819995 20195893
0.10383701 -0.0962696 0.98819995 20326462
0.10574729 -0.0962696 0.98819995 20654152
0.10765757 -0.0962696 0.98819995 20979792
0.10956785 -0.0962696 0.98819995 21047640
0.11111714 -0.09595786 0.98499995 21113183
0.11302123 -0.09595786 0.98499995 21375590
0.11492532 -0.09595786 0.98499995 21637995
0.11682943 -0.09595786 0.98499995 21510769
0.11873352 -0.09595786 0.98499995 21316973
0.12027019 -0.095665611 0.98199999 21580906
0.12216849 -0.095665611 0.98199999 21845863
0.12406678 -0.095665611 0.98199999 21780324
0.12596507 -0.095665611 0.98199999 21649243
0.12786336 -0.095665611 0.98199999 21647699
0.13015807 -0.09595786 0.98499995 21647439
0.13206217 -0.09595786 0.98499995 20984396
0.13355826 -0.095665611 0.98199999 20328254
0.13545655 -0.095665611 0.98199999 19799857
0.13735484 -0.095665611 0.98199999 19273505
0.13925314 -0.095665611 0.98199999 19011346
0.1407202 -0.095373347 0.97899997 18749983
0.14261271 -0.095373347 0.97899997 18749229
0.1445052 -0.095373347 0.97899997 18748972
0.14609861 -0.095178507 0.977 18421292
0.14798726 -0.095178507 0.977 18028577
0.14987588 -0.095178507 0.977 18027543
0.15176451 -0.095178507 0.977 18027554
0.15365314 -0.095178507 0.977 17961262
0.15554178 -0.095178507 0.977 1118493
0.1574304 -0.095178507 0.977 986380
0.15931903 -0.095178507 0.977 920590
0.16120766 -0.095178507 0.977 919824
0.16259548 -0.094886251 0.97399998 919053
0.1644783 -0.094886251 0.97399998 17696011
0.16636114 -0.094886251 0.97399998 17696013
0.16824397 -0.094886251 0.97399998 17696015
0.1701268 -0.094886251 0.97399998 17696268
0.17200963 -0.094886251 0.97399998 17696009
0.17389245 -0.094886251 0.97399998 17629715
0.17577529 -0.094886251 0.97399998 17498653
0.17765811 -0.094886251 0.97399998 17432871
0.17898794 -0.094593994 0.97099996 17957170
0.18030618 -0.094301745 0.96799999 18546994
0.18180101 -0.094106898 0.96599996 18874674
0.18366838 -0.094106898 0.96599996 19136832
0.18553573 -0.094106898 0.96599996 19400270
0.1874031 -0.094106898 0.96599996 19728215
0.18927047 -0.094106898 0.96599996 20193632
0.19054425 -0.093814641 0.963 20654697
0.1924058 -0.093814641 0.963 20921970
0.19426738 -0.093814641 0.963 21188212
0.19612893 -0.093814641 0.963 21384822
0.19737372 -0.093522385 0.95999998 21647221
-0.036730614 -0.097316198 1.0192 26575236
-0.034760408 -0.097316198 1.0192 24200792
-0.032693688 -0.097029746 1.0161999 21894445
-0.030729277 -0.097029746 1.0161999 19671090
-0.028849792 -0.097316198 1.0192 20261943
-0.026879586 -0.097316198 1.0192 20851805
-0.024909381 -0.097316198 1.0192 21517444
-0.022939175 -0.097316198 1.0192 22240152
-0.020968968 -0.097316198 1.0192 22640557
-0.018998764 -0.097316198 1.0192 23034307
-0.017028557 -0.097316198 1.0192 24024282
-0.015058353 -0.097316198 1.0192 25070821
-0.013088147 -0.097316198 1.0192 24480241
-0.011117941 -0.097316198 1.0192 23890418
-0.0091208089 -0.097029746 1.0161999 23497204
-0.0071775299 -0.097316198 1.0192 23173621
-0.0051919967 -0.097029746 1.0161999 22770678
-0.0032371185 -0.097316198 1.0192 22380531
-0.0012631838 -0.097029746 1.0161999 22510320
0.00070122257 -0.097029746 1.0161999 22645234
0.0026577592 -0.096743293 1.0131999 22907380
0.0046163662 -0.096743293 1.0131999 23173618
0.0065749735 -0.096743293 1.0131999 23240177
0.0085335812 -0.096743293 1.0131999 23375348
0.010471476 -0.096552335 1.0112 24885239
0.012426217 -0.096552335 1.0112 26461174
0.014380958 -0.096552335 1.0112 26596598
0.0163357 -0.096552335 1.0112 26795511
0.01829044 -0.096552335 1.0112 28440312
0.020185119 -0.096265882 1.0081999 30144250
0.02213406 -0.096265882 1.0081999 30736124
0.024083 -0.096265882 1.0081999 31325949
0.026031943 -0.096265882 1.0081999 31457022
0.027980885 -0.096265882 1.0081999 31653630
0.029929826 -0.096265882 1.0081999 31457022
0.031878769 -0.096265882 1.0081999 31253497
0.033827711 -0.096265882 1.0081999 30990068
0.035776649 -0.096265882 1.0081999 30792949
0.03772559 -0.096265882 1.0081999 30733814
0.039674532 -0.096265882 1.0081999 30665960
0.041623473 -0.096265882 1.0081999 31193305
0.043572415 -0.096265882 1.0081999 31717587
0.045385908 -0.095979445 1.0052 31850188
0.047187798 -0.095692992 1.0022 32046787
0.049125142 -0.095692992 1.0022 32439994
0.051062483 -0.095692992 1.0022 32894640
0.052999828 -0.095692992 1.0022 31714726
0.05477272 -0.09540654 0.99919999 30525080
0.056704264 -0.09540654 0.99919999 29211017
0.058635805 -0.09540654 0.99919999 27897740
0.060567353 -0.09540654 0.99919999 27962000
0.062498894 -0.09540654 0.99919999 28021388
0.064430438 -0.09540654 0.99919999 27033481
0.066361986 -0.09540654 0.99919999 26043269
0.068293527 -0.09540654 0.99919999 24655489
0.070225067 -0.09540654 0.99919999 23276658
0.071939975 -0.095120095 0.99619997 21692772
0.073865712 -0.095120095 0.99619997 20119908
0.075791456 -0.095120095 0.99619997 19071332
0.0777172 -0.095120095 0.99619997 18022748
0.079642944 -0.095120095 0.99619997 17498452
0.081568696 -0.095120095 0.99619997 16974150
0.083243005 -0.094833642 0.9932 16908600
0.085420184 -0.095120095 0.99619997 16843060
0.087345921 -0.095120095 0.99619997 16843056
0.089002833 -0.094833642 0.9932 16909868
0.090922788 -0.094833642 0.9932 17433641
0.092842728 -0.094833642 0.9932 18027560
0.094476432 -0.094547197 0.99019998 18880296
0.096390583 -0.094547197 0.99019998 19734055
0.098304726 -0.094547197 0.99019998 19998758
0.10021888 -0.094547197 0.99019998 3549477
0.10192673 -0.094356224 0.98819995 3681571
0.10383701 -0.094356224 0.98819995 3812656
0.10574729 -0.094356224 0.98819995 20786492
0.10765757 -0.094356224 0.98819995 20980547
0.10956785 -0.094356224 0.98819995 20064842
0.11111714 -0.094050683 0.98499995 19147089
0.11302123 -0.094050683 0.98499995 19409241
0.11492532 -0.094050683 0.98499995 19671389
0.11682943 -0.094050683 0.98499995 19538786
0.11873352 -0.094050683 0.98499995 19474520
0.12063761 -0.094050683 0.98499995 19605326
0.12216849 -0.093764231 0.98199999 19736405
0.12406678 -0.093764231 0.98199999 19605083
0.12596507 -0.093764231 0.98199999 19542357
0.12825398 -0.094050683 0.98499995 20263247
0.13015807 -0.094050683 0.98499995 21049420
0.13206217 -0.094050683 0.98499995 20721224
0.13396627 -0.094050683 0.98499995 20393534
0.13587035 -0.094050683 0.98499995 19999028
0.13777445 -0.094050683 0.98499995 19669548
0.13925314 -0.093764231 0.98199999 19470885
0.1407202 -0.093477786 0.97899997 19340588
0.14261271 -0.093477786 0.97899997 19341108
0.1445052 -0.093477786 0.97899997 19406130
0.14609861 -0.093286827 0.977 19143216
0.14798726 -0.093286827 0.977 18880809
0.14987588 -0.093286827 0.977 18879523
0.15176451 -0.093286827 0.977 18879527
0.15365314 -0.093286827 0.977 18814251
0.15554178 -0.093286827 0.977 18748451
0.1574304 -0.093286827 0.977 18682394
0.15931903 -0.093286827 0.977 1839899
0.16120766 -0.093286827 0.977 1774877
0.16309628 -0.093286827 0.977 1774364
0.16498493 -0.093286827 0.977 1774107
0.16636114 -0.093000367 0.97399998 1839643
0.16824397 -0.093000367 0.97399998 1839643
0.1701268 -0.093000367 0.97399998 1839130
0.17200963 -0.093000367 0.97399998 1708057
0.17389245 -0.093000367 0.97399998 1575705
0.17577529 -0.093000367 0.97399998 985113
0.17765811 -0.093000367 0.97399998 460323
0.17898794 -0.092713922 0.97099996 525358
0.18086497 -0.092713922 0.97099996 17368103
0.18217741 -0.09242747 0.96799999 17237281
0.18404864 -0.09242747 0.96799999 17171752
0.18553573 -0.092236504 0.96599996 17040688
0.1874031 -0.092236504 0.96599996 16975157
0.18966234 -0.09242747 0.96799999 16909370
0.19113784 -0.092236504 0.96599996 16909371
0.1930052 -0.092236504 0.96599996 16908604
0.19487256 -0.092236504 0.96599996 16908864
0.19673993 -0.092236504 0.96599996 16974405
0.19799051 -0.091950059 0.963 17042755
0.19985208 -0.091950059 0.963 18157378
0.20171364 -0.091950059 0.963 19276345
0.20357519 -0.091950059 0.963 19343408
0.20543678 -0.091950059 0.963 19474474
0.20665254 -0.091663606 0.95999998 19736613
0.20981148 -0.092236504 0.96599996 19994657
0.21167885 -0.092236504 0.96599996 19405854
0.21354622 -0.092236504 0.96599996 18815520
-0.036730614 -0.0953428 1.0192 26180485
-0.034658089 -0.095062159 1.0161999 23610457
-0.032693688 -0.095062159 1.0161999 21567277
-0.030729277 -0.095062159 1.0161999 19539763
-0.028849792 -0.0953428 1.0192 20195898
-0.026879586 -0.0953428 1.0192 20917344
-0.024909381 -0.0953428 1.0192 21517702
-0.022939175 -0.0953428 1.0192 22111136
-0.020968968 -0.0953428 1.0192 22837178
-0.018998764 -0.0953428 1.0192 23625165
-0.017028557 -0.0953428 1.0192 24286433
-0.015058353 -0.0953428 1.0192 25008619
-0.013088147 -0.0953428 1.0192 7969269
-0.011117941 -0.0953428 1.0192 7707892
-0.0091208089 -0.095062159 1.0161999 7511027
-0.0071775299 -0.0953428 1.0192 24157168
-0.0051919967 -0.095062159 1.0161999 24025070
-0.0032275899 -0.095062159 1.0161999 23828456
-0.0012631838 -0.095062159 1.0161999 23891938
0.00069915241 -0.094781511 1.0131999 24021478
0.0026577592 -0.094781511 1.0131999 24087019
0.0046163662 -0.094781511 1.0131999 24217319
0.0065749735 -0.094781511 1.0131999 24286692
0.0085335812 -0.094781511 1.0131999 24280042
0.010471476 -0.094594426 1.0112 25001968
0.012426217 -0.094594426 1.0112 25721071
0.014380958 -0.094594426 1.0112 25660142
0.0163357 -0.094594426 1.0112 25659120
0.01829044 -0.094594426 1.0112 26187763
0.020185119 -0.094313778 1.0081999 26646775
0.02213406 -0.094313778 1.0081999 27110651
0.024083 -0.094313778 1.0081999 27505916
0.026031943 -0.094313778 1.0081999 27572990
0.027980885 -0.094313778 1.0081999 27639806
0.029929826 -0.094313778 1.0081999 27508478
0.031878769 -0.094313778 1.0081999 27442941
0.033827711 -0.094313778 1.0081999 27509501
0.035776649 -0.094313778 1.0081999 27576829
0.03772559 -0.094313778 1.0081999 27643389
0.039674532 -0.094313778 1.0081999 27776509
0.041623473 -0.094313778 1.0081999 28238334
0.043572415 -0.094313778 1.0081999 28704510
0.045385908 -0.094033152 1.0052 28966654
0.047187798 -0.093752511 1.0022 29228798
0.049125142 -0.093752511 1.0022 30146302
0.051062483 -0.093752511 1.0022 31129342
0.052999828 -0.093752511 1.0022 31260414
0.054937169 -0.093752511 1.0022 31391486
0.056874514 -0.093752511 1.0022 30801662
0.058811858 -0.093752511 1.0022 30211838
0.060749199 -0.093752511 1.0022 30277374
0.062686548 -0.093752511 1.0022 30342910
0.064430438 -0.09347187 0.99919999 30080766
0.066361986 -0.09347187 0.99919999 29753086
0.068293527 -0.09347187 0.99919999 29094910
0.070225067 -0.09347187 0.99919999 28373986
0.071939975 -0.093191229 0.99619997 27579846
0.073865712 -0.093191229 0.99619997 26792119
0.075791456 -0.093191229 0.99619997 26258857
0.0777172 -0.093191229 0.99619997 25730698
0.079642944 -0.093191229 0.99619997 25462380
0.081568696 -0.093191229 0.99619997 25129550
0.08349444 -0.093191229 0.99619997 24861489
0.085420184 -0.093191229 0.99619997 24523811
0.087345921 -0.093191229 0.99619997 23998229
0.089002833 -0.092910588 0.9932 23404053
0.090922788 -0.092910588 0.9932 23206677
0.092842728 -0.092910588 0.9932 23006741
0.094762668 -0.092910588 0.9932 22679317
0.096390583 -0.092629947 0.99019998 22414095
0.098304726 -0.092629947 0.99019998 21889801
0.10021888 -0.092629947 0.99019998 21365005
0.10192673 -0.092442848 0.98819995 20775954
0.10383701 -0.092442848 0.98819995 20186401
0.10574729 -0.092442848 0.98819995 19731505
0.10765757 -0.092442848 0.98819995 19341622
0.10956785 -0.092442848 0.98819995 18621244
0.11147813 -0.092442848 0.98819995 17970500
0.11302123 -0.092143498 0.98499995 18101580
0.11492532 -0.092143498 0.98499995 18232655
0.11682943 -0.092143498 0.98499995 18362451
0.11873352 -0.092143498 0.98499995 18494019
0.12063761 -0.092143498 0.98499995 18952755
0.1225417 -0.092143498 0.98499995 19411523
0.1244458 -0.092143498 0.98499995 19542611
0.1263499 -0.092143498 0.98499995 19739215
0.12825398 -0.092143498 0.98499995 3551308
0.13015807 -0.092143498 0.98499995 4206664
0.13206217 -0.092143498 0.98499995 20984133
0.13396627 -0.092143498 0.98499995 21050686
0.13587035 -0.092143498 0.98499995 20656696
0.13777445 -0.092143498 0.98499995 20329016
0.13925314 -0.091862865 0.98199999 20130104
0.1407202 -0.091582224 0.97899997 19931705
0.14261271 -0.091582224 0.97899997 19932731
0.1445052 -0.091582224 0.97899997 19934007
0.14639769 -0.091582224 0.97899997 19736372
0.14798726 -0.091395132 0.977 19604785
0.14987588 -0.091395132 0.977 19473199
0.15176451 -0.091395132 0.977 19407660
0.15365314 -0.091395132 0.977 19341609
0.15554178 -0.091395132 0.977 19276073
0.1574304 -0.091395132 0.977 19210537
0.15931903 -0.091395132 0.977 2368297
0.16120766 -0.091395132 0.977 2301226
0.16309628 -0.091395132 0.977 2300458
0.16498493 -0.091395132 0.977 2300459
0.16687354 -0.091395132 0.977 2300457
0.16824397 -0.091114491 0.97399998 2299432
0.1701268 -0.091114491 0.97399998 2299432
0.17200963 -0.091114491 0.97399998 2168105
0.17389245 -0.091114491 0.97399998 2102559
0.17577529 -0.091114491 0.97399998 1709077
0.17711091 -0.09083385 0.97099996 1315872
0.17898794 -0.09083385 0.97099996 1249835
0.18086497 -0.09083385 0.97099996 1249821
0.18217741 -0.090553209 0.96799999 1249808
0.18404864 -0.090553209 0.96799999 1184785
0.18553573 -0.090366118 0.96599996 1118482
0.1874031 -0.090366118 0.96599996 1052947
0.18927047 -0.090366118 0.96599996 986132
0.19113784 -0.090366118 0.96599996 17697037
0.1930052 -0.090366118 0.96599996 17696518
0.19487256 -0.090366118 0.96599996 17761293
0.19673993 -0.090366118 0.96599996 17762068
0.19799051 -0.090085477 0.963 17762322
0.19985208 -0.090085477 0.963 18288144
0.20171364 -0.090085477 0.963 18877982
0.20357519 -0.090085477 0.963 18814508
0.20543678 -0.090085477 0.963 2038315
0.20729834 -0.090085477 0.963 18946091
0.20981148 -0.090366118 0.96599996 19141929
0.21102147 -0.090085477 0.963 18748711
0.21288304 -0.090085477 0.963 18421292
0.2147446 -0.090085477 0.963 18421809
0.21548152 -0.089617744 0.958 18488102
0.21733342 -0.089617744 0.958 18815516
0.21918532 -0.089617744 0.958 19208743
0.22103722 -0.089617744 0.958 18814770
-0.036730614 -0.093369402 1.0192 25786752
-0.034658089 -0.093094565 1.0161999 23083091
-0.032693688 -0.093094565 1.0161999 21238055
-0.030729277 -0.093094565 1.0161999 19474224
-0.028849792 -0.093369402 1.0192 20195898
-0.026879586 -0.093369402 1.0192 20983905
-0.024909381 -0.093369402 1.0192 21453704
-0.022939175 -0.093369402 1.0192 21979811
-0.020968968 -0.093369402 1.0192 23100351
-0.018998764 -0.093369402 1.0192 24214996
-0.017028557 -0.093369402 1.0192 24549865
-0.015058353 -0.093369402 1.0192 24943855
-0.013088147 -0.093369402 1.0192 8233205
-0.011117941 -0.093369402 1.0192 8298742
-0.0091208089 -0.093094565 1.0161999 8364279
-0.0071775299 -0.093369402 1.0192 8430070
-0.0052073239 -0.093369402 1.0192 8496373
-0.0032275899 -0.093094565 1.0161999 8561906
-0.0012631838 -0.093094565 1.0161999 8562160
0.00069915241 -0.092819735 1.0131999 8627698
0.0026577592 -0.092819735 1.0131999 8562164
0.0046163662 -0.092819735 1.0131999 8561394
0.0065749735 -0.092819735 1.0131999 8495857
