# .PCD v0.7 - Point Cloud Data file format
VERSION 0.7
FIELDS x y z rgba
SIZE 4 4 4 4
TYPE F F F U
COUNT 1 1 1 1
WIDTH 1151
HEIGHT 1
VIEWPOINT 0 0 0 1 0 0 0
POINTS 1151
DATA ascii
-0.59989619 0.19394615 1.0253999 14270661
-0.59791404 0.19394615 1.0253999 14270404
-0.59407216 0.1933409 1.0222 14269892
-0.59394962 0.19394615 1.0253999 14269375
-0.59012014 0.1933409 1.0222 14402235
-0.58814412 0.1933409 1.0222 14599620
-0.58444774 0.19277348 1.0192 14665933
-0.58247757 0.19277348 1.0192 14799567
-0.58050734 0.19277348 1.0192 14864850
-0.57853717 0.19277348 1.0192 14930900
-0.57656699 0.19277348 1.0192 15061975
-0.57459676 0.19277348 1.0192 15127512
-0.57262653 0.19277348 1.0192 15259098
-0.56897658 0.19220604 1.0161999 15391706
-0.56701219 0.19220604 1.0161999 15456730
-0.5667159 0.19277348 1.0192 15587806
-0.56308341 0.19220604 1.0161999 15588066
-0.56111902 0.19220604 1.0161999 15653858
-0.55915457 0.19220604 1.0161999 15589090
-0.55719018 0.19220604 1.0161999 15458531
-0.55522573 0.19220604 1.0161999 15655141
-0.55326134 0.19220604 1.0161999 15854313
-0.55129695 0.19220604 1.0161999 15919342
-0.54933256 0.19220604 1.0161999 16050664
-0.54736817 0.19220604 1.0161999 15917027
-0.54540372 0.19220604 1.0161999 15786209
-0.54343933 0.19220604 1.0161999 15785951
-0.54147488 0.19220604 1.0161999 15785947
-0.53951049 0.19220604 1.0161999 15654872
-0.53595912 0.19163863 1.0131999 15458523
-0.53400058 0.19163863 1.0131999 14798047
-0.53204197 0.19163863 1.0131999 14140105
-0.53008336 0.19163863 1.0131999 13152179
-0.52708226 0.19126034 1.0112 12166053
-0.52616614 0.19163863 1.0131999 10917015
-0.52420753 0.19163863 1.0131999 26381449
-0.52224886 0.19163863 1.0131999 23552123
-0.52029032 0.19163863 1.0131999 20651084
-0.51833165 0.19163863 1.0131999 20126749
-0.5163731 0.19163863 1.0131999 19537445
-0.51441449 0.19163863 1.0131999 2826797
-0.51245588 0.19163863 1.0131999 2892844
-0.5094896 0.19126034 1.0112 2957868
-0.48886368 0.18422426 0.97399998 3023398
-0.48698086 0.18422426 0.97399998 2891809
-0.485098 0.18422426 0.97399998 2760224
-0.48321518 0.18422426 0.97399998 2759711
-0.48133236 0.18422426 0.97399998 2825254
-0.47944954 0.18422426 0.97399998 2891566
-0.47756669 0.18422426 0.97399998 2892079
-0.47568387 0.18422426 0.97399998 2958896
-0.47380105 0.18422426 0.97399998 3025710
-0.47337177 0.1847917 0.977 2827820
-0.47148314 0.1847917 0.977 2630701
-0.47055581 0.18516998 0.97899997 2300462
-0.46866331 0.18516998 0.97899997 2037287
-0.46677083 0.18516998 0.97899997 2233633
-0.46487832 0.18516998 0.97899997 2495784
-0.46298581 0.18516998 0.97899997 2561327
-0.46109331 0.18516998 0.97899997 2626860
-0.45826274 0.1847917 0.977 2692905
-0.45637411 0.1847917 0.977 2758442
-0.45448548 0.1847917 0.977 2627884
-0.45259684 0.1847917 0.977 2563113
-0.45070824 0.1847917 0.977 2562599
-0.44744143 0.18422426 0.97399998 2497064
-0.44555861 0.18422426 0.97399998 2824489
-0.44367576 0.18422426 0.97399998 3152171
-0.44179294 0.18422426 0.97399998 2890029
-0.43855512 0.18365683 0.97099996 2627878
-0.43667811 0.18365683 0.97099996 2168864
-0.4348011 0.18365683 0.97099996 1710113
-0.42935723 0.18214372 0.963 1774114
-0.4288274 0.18271112 0.96599996 1838631
-0.42696005 0.18271112 0.96599996 2102572
-0.4250927 0.18271112 0.96599996 2431018
-0.42322531 0.18271112 0.96599996 2760233
-0.42223033 0.18308942 0.96799999 3088927
-0.42166185 0.18365683 0.97099996 3153173
-0.41978484 0.18365683 0.97099996 3283486
-0.41790777 0.18365683 0.97099996 2823719
-0.41603076 0.18365683 0.97099996 2363677
-0.41415375 0.18365683 0.97099996 2298387
-0.41227672 0.18365683 0.97099996 2299167
-0.41039968 0.18365683 0.97099996 2431788
-0.40726048 0.18308942 0.96799999 2565942
-0.40538928 0.18308942 0.96799999 2762305
-0.4026843 0.18271112 0.96599996 2958641
-0.39957219 0.18214372 0.963 3153698
-0.39647162 0.18157628 0.95999998 3283490
-0.39461586 0.18157628 0.95999998 2757922
-0.3927601 0.18157628 0.95999998 2233110
-0.3921259 0.18214372 0.963 1708298
-0.39026436 0.18214372 0.963 1183766
-0.39041942 0.18308942 0.96799999 1577250
-0.38774538 0.18271112 0.96599996 1971498
-0.38467965 0.18214372 0.963 2300722
-0.38281807 0.18214372 0.963 2696264
-0.38095653 0.18214372 0.963 2893919
-0.37909496 0.18214372 0.963 3092053
-0.37723339 0.18214372 0.963 3550540
-0.37537184 0.18214372 0.963 4009279
-0.37351024 0.18214372 0.963 3351602
-0.37164867 0.18214372 0.963 2693919
-0.37093908 0.18271112 0.96599996 2234125
-0.36907175 0.18271112 0.96599996 1839902
-0.36720437 0.18271112 0.96599996 2300464
-0.36533698 0.18271112 0.96599996 2826298
-0.36346963 0.18271112 0.96599996 3220036
-0.3604793 0.18214372 0.963 3679310
-0.35861772 0.18214372 0.963 3418968
-0.35675615 0.18214372 0.963 3158598
-0.35489461 0.18214372 0.963 2761013
-0.35193324 0.18157628 0.95999998 2366514
-0.35007745 0.18157628 0.95999998 2038064
-0.34822169 0.18157628 0.95999998 1708340
-0.34636593 0.18157628 0.95999998 2167865
-0.34451017 0.18157628 0.95999998 2627131
-0.34265441 0.18157628 0.95999998 3088189
-0.34008864 0.181198 0.958 3483461
-0.33823675 0.181198 0.958 2956878
-0.33638483 0.181198 0.958 2497083
-0.33348534 0.18063056 0.95499998 1905705
-0.33163923 0.18063056 0.95499998 1380635
-0.32910246 0.18025228 0.95299995 1511438
-0.32794702 0.18063056 0.95499998 1707037
-0.32610092 0.18063056 0.95499998 1773612
-0.32527342 0.181198 0.958 1841203
-0.32342154 0.181198 0.958 2367546
-0.32156965 0.181198 0.958 2958649
-0.31971774 0.181198 0.958 2958136
-0.31687042 0.18063056 0.95499998 2957363
-0.31502432 0.18063056 0.95499998 2563118
-0.31317821 0.18063056 0.95499998 2169131
-0.31133211 0.18063056 0.95499998 2037033
-0.309486 0.18063056 0.95499998 1971749
-0.30763993 0.18063056 0.95499998 2102817
-0.30675444 0.181198 0.958 2234132
-0.30490252 0.181198 0.958 2168840
-0.30305064 0.181198 0.958 2169626
-0.30119872 0.181198 0.958 2562605
-0.29934683 0.181198 0.958 2955564
-0.2965633 0.18063056 0.95499998 2758187
-0.29471719 0.18063056 0.95499998 2561060
-0.29225773 0.18025228 0.95299995 2298910
-0.29041553 0.18025228 0.95299995 2102556
-0.28857329 0.18025228 0.95299995 1839898
-0.28673103 0.18025228 0.95299995 1577251
-0.2848888 0.18025228 0.95299995 2102828
-0.28215557 0.17968486 0.94999999 2629673
-0.28031912 0.17968486 0.94999999 3023655
-0.27848271 0.17968486 0.94999999 3417899
-0.27664626 0.17968486 0.94999999 3417392
-0.27480984 0.17968486 0.94999999 3416875
-0.27297339 0.17968486 0.94999999 3087911
-0.27113694 0.17968486 0.94999999 2759462
-0.27015093 0.18025228 0.95299995 2364710
-0.2683087 0.18025228 0.95299995 1904932
-0.26562765 0.17968486 0.94999999 2167075
-0.2637912 0.17968486 0.94999999 2494758
-0.2610724 0.17907961 0.94679999 2628393
-0.25924215 0.17907961 0.94679999 2826538
-0.25686815 0.17870131 0.94479996 2894123
-0.25504178 0.17870131 0.94479996 2959146
-0.25321537 0.17870131 0.94479996 3023913
-0.251389 0.17870131 0.94479996 3089448
-0.24956262 0.17870131 0.94479996 2826023
-0.24773623 0.17870131 0.94479996 2563111
-0.24643041 0.17907961 0.94679999 2365223
-0.24460016 0.17907961 0.94679999 2234409
-0.24276991 0.17907961 0.94679999 2300460
-0.24093966 0.17907961 0.94679999 2366501
-0.23991756 0.17968486 0.94999999 2497567
-0.23727916 0.17907961 0.94679999 2694945
-0.23544891 0.17907961 0.94679999 2825763
-0.23312517 0.17870131 0.94479996 3022374
-0.23129877 0.17870131 0.94479996 2891561
-0.22947238 0.17870131 0.94479996 2758952
-0.22764601 0.17870131 0.94479996 2561831
-0.22581962 0.17870131 0.94479996 2428955
-0.22399324 0.17870131 0.94479996 2561040
-0.22216687 0.17870131 0.94479996 2627614
-0.22034048 0.17870131 0.94479996 2957101
-0.21851408 0.17870131 0.94479996 3285557
-0.21668769 0.17870131 0.94479996 3680574
-0.21417908 0.1781339 0.9418 4075330
-0.21235849 0.1781339 0.9418 4535879
-0.21053793 0.1781339 0.9418 5062226
-0.20871733 0.1781339 0.9418 4668509
-0.20645738 0.17775561 0.93979996 4208458
-0.20464066 0.17775561 0.93979996 3878200
-0.20282394 0.17775561 0.93979996 3483441
-0.20100722 0.17775561 0.93979996 3351594
-0.19961441 0.1781339 0.9418 3220265
-0.19779381 0.1781339 0.9418 3285289
-0.19659749 0.17870131 0.94479996 3416364
-0.1947711 0.17870131 0.94479996 3351087
-0.19294472 0.17870131 0.94479996 3286317
-0.19111833 0.17870131 0.94479996 3154219
-0.18929195 0.17870131 0.94479996 2956842
-0.18687032 0.1781339 0.9418 2758186
-0.18504973 0.1781339 0.9418 2495014
-0.18322915 0.1781339 0.9418 2364450
-0.18102333 0.17775561 0.93979996 2300194
-0.17920659 0.17775561 0.93979996 2364451
-0.17738989 0.17775561 0.93979996 2430499
-0.17501271 0.1771882 0.9368 2496292
-0.1732018 0.1771882 0.9368 2563107
-0.17139088 0.1771882 0.9368 2629155
-0.16921791 0.17680989 0.93479997 2695718
-0.16741085 0.17680989 0.93479997 2760233
-0.1656038 0.17680989 0.93479997 2824745
-0.1641472 0.1771882 0.9368 3022377
-0.16233629 0.1771882 0.9368 3286057
-0.16018265 0.17680989 0.93479997 20392234
-0.15837561 0.17680989 0.93479997 20787003
-0.16045429 0.181198 0.958 22237004
-0.15893351 0.18157628 0.95999998 6904154
-0.1575686 0.18214372 0.963 8286824
-0.15570703 0.18214372 0.963 9665414
-0.15384546 0.18214372 0.963 10849956
-0.1519839 0.18214372 0.963 12103339
-0.15012233 0.18214372 0.963 12890546
-0.14826077 0.18214372 0.963 13681339
-0.1463992 0.18214372 0.963 14009796
-0.14453763 0.18214372 0.963 14407375
-0.14267607 0.18214372 0.963 14865627
-0.6175552 0.19650479 1.0283999 15456476
-0.6137715 0.19593155 1.0253999 15193564
-0.61178935 0.19593155 1.0253999 14928603
-0.60980719 0.19593155 1.0253999 14666705
-0.60782492 0.19593155 1.0253999 14532296
-0.60584277 0.19593155 1.0253999 14468807
-0.60386062 0.19593155 1.0253999 14272455
-0.6018784 0.19593155 1.0253999 14139844
-0.59802413 0.19532011 1.0222 14203586
-0.59791404 0.19593155 1.0253999 14269379
-0.59407216 0.19532011 1.0222 14269892
-0.59209609 0.19532011 1.0222 14336964
-0.5883882 0.19474688 1.0192 14535109
-0.58641797 0.19474688 1.0192 14731721
-0.58444774 0.19474688 1.0192 14797262
-0.58247757 0.19474688 1.0192 14863824
-0.57879859 0.19417365 1.0161999 14862033
-0.5768342 0.19417365 1.0161999 14930130
-0.57486987 0.19417365 1.0161999 15126740
-0.57290542 0.19417365 1.0161999 15324377
-0.57094103 0.19417365 1.0161999 15456735
-0.56897658 0.19417365 1.0161999 15588575
-0.56701219 0.19417365 1.0161999 15654367
-0.56504774 0.19417365 1.0161999 15719392
-0.56308341 0.19417365 1.0161999 15653346
-0.56111902 0.19417365 1.0161999 15653858
-0.55915457 0.19417365 1.0161999 15457762
-0.55719018 0.19417365 1.0161999 15261667
-0.55522573 0.19417365 1.0161999 15521764
-0.55326134 0.19417365 1.0161999 15787495
-0.55129695 0.19417365 1.0161999 15984105
-0.54933256 0.19417365 1.0161999 16180454
-0.54736817 0.19417365 1.0161999 15917027
-0.54540372 0.19417365 1.0161999 15720418
-0.54343933 0.19417365 1.0161999 15785698
-0.54147488 0.19417365 1.0161999 15917278
-0.53951049 0.19417365 1.0161999 15524315
-0.53595912 0.1936004 1.0131999 15125972
-0.53400058 0.1936004 1.0131999 13942222
-0.53204197 0.1936004 1.0131999 12823483
-0.529037 0.19321825 1.0112 11966633
-0.52708226 0.19321825 1.0112 11178907
-0.52512753 0.19321825 1.0112 26578573
-0.5231728 0.19321825 1.0112 25259877
-0.52121806 0.19321825 1.0112 21975614
-0.52029032 0.1936004 1.0131999 18750249
-0.51730853 0.19321825 1.0112 19273749
-0.5153538 0.19321825 1.0112 3088416
-0.51339906 0.19321825 1.0112 3023403
-0.51245588 0.1936004 1.0131999 3023403
-0.51049727 0.1936004 1.0131999 3023403
-0.48886368 0.18611014 0.97399998 3088935
-0.48698086 0.18611014 0.97399998 2957604
-0.485098 0.18611014 0.97399998 2890789
-0.48321518 0.18611014 0.97399998 2824230
-0.48133236 0.18611014 0.97399998 2825259
-0.47944954 0.18611014 0.97399998 2760240
-0.47756669 0.18611014 0.97399998 2694959
-0.47568387 0.18611014 0.97399998 2695470
-0.47380105 0.18611014 0.97399998 2761003
-0.47191823 0.18611014 0.97399998 2630184
-0.47003537 0.18611014 0.97399998 2498090
-0.46815255 0.18611014 0.97399998 2169388
-0.46770591 0.18668339 0.977 1841702
-0.46581724 0.18668339 0.977 2169632
-0.46487832 0.18706554 0.97899997 2562342
-0.46204001 0.18668339 0.977 2695468
-0.46015137 0.18668339 0.977 2890537
-0.45826274 0.18668339 0.977 2824231
-0.45497274 0.18611014 0.97399998 2758439
-0.45448548 0.18668339 0.977 2627368
-0.45120707 0.18611014 0.97399998 2561569
-0.45070824 0.18668339 0.977 2495771
-0.44744143 0.18611014 0.97399998 2496546
-0.44555861 0.18611014 0.97399998 3087145
-0.4423092 0.18553691 0.97099996 3677745
-0.44043216 0.18553691 0.97099996 3351865
-0.43855512 0.18553691 0.97099996 3022639
-0.43532896 0.18496369 0.96799999 2759462
-0.43256214 0.18458152 0.96599996 2562083
-0.42935723 0.18400829 0.963 2233377
-0.42749566 0.18400829 0.963 1971237
-0.42563409 0.18400829 0.963 2168618
-0.42377254 0.18400829 0.963 2430762
-0.42191097 0.18400829 0.963 2761770
-0.42135796 0.18458152 0.96599996 3155494
-0.4203591 0.18496369 0.96799999 3483939
-0.41848788 0.18496369 0.96799999 3808808
-0.41790777 0.18553691 0.97099996 3152941
-0.41474542 0.18496369 0.96799999 2562085
-0.41415375 0.18553691 0.97099996 2299166
-0.41100296 0.18496369 0.96799999 2103073
-0.40913171 0.18496369 0.96799999 2170149
-0.40726048 0.18496369 0.96799999 2236463
-0.40455166 0.18458152 0.96599996 2499385
-0.40143374 0.18400829 0.963 2826800
-0.39957219 0.18400829 0.963 3351080
-0.39647162 0.18343505 0.95999998 3939877
-0.39461586 0.18343505 0.95999998 3153186
-0.3927601 0.18343505 0.95999998 2431002
-0.3921259 0.18400829 0.963 1578771
-0.39026436 0.18400829 0.963 791321
-0.38840279 0.18400829 0.963 1249567
-0.38654122 0.18400829 0.963 1708831
-0.38467965 0.18400829 0.963 2102303
-0.38281807 0.18400829 0.963 2496823
-0.38095653 0.18400829 0.963 2693967
-0.37909496 0.18400829 0.963 2958153
-0.37723339 0.18400829 0.963 3812164
-0.37537184 0.18400829 0.963 4729659
-0.37351024 0.18400829 0.963 3812403
-0.37164867 0.18400829 0.963 2891046
-0.36978713 0.18400829 0.963 2170137
-0.36792555 0.18400829 0.963 1446947
-0.36720437 0.18458152 0.96599996 2102061
-0.36533698 0.18458152 0.96599996 2758453
-0.36346963 0.18458152 0.96599996 2889790
-0.3604793 0.18400829 0.963 3088452
-0.35861772 0.18400829 0.963 3090251
-0.35675615 0.18400829 0.963 3089726
-0.35378897 0.18343505 0.95999998 2826801
-0.35193324 0.18343505 0.95999998 2562861
-0.35007745 0.18343505 0.95999998 2300458
-0.34749624 0.1830529 0.958 2102308
-0.34564435 0.1830529 0.958 2363422
-0.34379244 0.1830529 0.958 2626345
-0.34194055 0.1830529 0.958 2758965
-0.34008864 0.1830529 0.958 2955322
-0.33823675 0.1830529 0.958 2693183
-0.33533144 0.18247966 0.95499998 2430259
-0.33348534 0.18247966 0.95499998 2102056
-0.33094469 0.18209751 0.95299995 1774109
-0.32910246 0.18209751 0.95299995 1708051
-0.32794702 0.18247966 0.95499998 1642525
-0.32610092 0.18247966 0.95499998 1445927
-0.32425481 0.18247966 0.95499998 1316140
-0.32240874 0.18247966 0.95499998 1972785
-0.32156965 0.1830529 0.958 2629940
-0.31871653 0.18247966 0.95499998 2759991
-0.31687042 0.18247966 0.95499998 2891570
-0.31502432 0.18247966 0.95499998 2496814
-0.31252232 0.18209751 0.95299995 2168619
-0.31068012 0.18209751 0.95299995 2102568
-0.30883789 0.18209751 0.95299995 2102566
-0.30763993 0.18247966 0.95499998 2299427
-0.30579382 0.18247966 0.95499998 2562078
-0.30394772 0.18247966 0.95499998 2759706
-0.30210161 0.18247966 0.95499998 2957602
-0.30025551 0.18247966 0.95499998 3090475
-0.2984094 0.18247966 0.95499998 3285547
-0.2965633 0.18247966 0.95499998 3021099
-0.29409999 0.18209751 0.95299995 2824230
-0.29225773 0.18209751 0.95299995 2562082
-0.29041553 0.18209751 0.95299995 2365215
-0.28766489 0.18152428 0.94999999 1906460
-0.28673103 0.18209751 0.95299995 1447715
-0.28399202 0.18152428 0.94999999 2169130
-0.28215557 0.18152428 0.94999999 2891821
-0.28031912 0.18152428 0.94999999 3287855
-0.27848271 0.18152428 0.94999999 3681585
-0.27664626 0.18152428 0.94999999 3748147
-0.27567762 0.18209751 0.95299995 3877680
-0.27297339 0.18152428 0.94999999 3549230
-0.27113694 0.18152428 0.94999999 3219242
-0.27015093 0.18209751 0.95299995 2431014
-0.2683087 0.18209751 0.95299995 1708834
-0.26562765 0.18152428 0.94999999 2101022
-0.2637912 0.18152428 0.94999999 2495524
-0.2610724 0.18091282 0.94679999 2563627
-0.25869453 0.18053067 0.94479996 2695467
-0.25686815 0.18053067 0.94479996 2894124
-0.25504178 0.18053067 0.94479996 3090477
-0.25241134 0.17995743 0.9418 3221551
-0.251389 0.18053067 0.94479996 3352108
-0.24877019 0.17995743 0.9418 3088938
-0.24773623 0.18053067 0.94479996 2891298
-0.24590984 0.18053067 0.94479996 2430491
-0.24408346 0.18053067 0.94479996 1972258
-0.24276991 0.18091282 0.94679999 2103849
-0.24093966 0.18091282 0.94679999 2234918
-0.23910941 0.18091282 0.94679999 2495780
-0.23727916 0.18091282 0.94679999 2760487
-0.23544891 0.18091282 0.94679999 2890538
-0.23312517 0.18053067 0.94479996 3022635
-0.23129877 0.18053067 0.94479996 2957356
-0.22874376 0.17995743 0.9418 2891051
-0.22692317 0.17995743 0.9418 2627370
-0.2251026 0.17995743 0.9418 2430499
-0.22328201 0.17995743 0.9418 2561308
-0.22146142 0.17995743 0.9418 2759205
-0.21964084 0.17995743 0.9418 2891566
-0.21782026 0.17995743 0.9418 3088949
-0.21599968 0.17995743 0.9418 3351357
-0.21417908 0.17995743 0.9418 3682113
-0.21235849 0.17995743 0.9418 4010308
-0.21053793 0.17995743 0.9418 4405068
-0.20871733 0.17995743 0.9418 4406357
-0.20645738 0.17957526 0.93979996 4404809
-0.20464066 0.17957526 0.93979996 4140862
-0.20282394 0.17957526 0.93979996 3943481
-0.20100722 0.17957526 0.93979996 3811892
-0.1991905 0.17957526 0.93979996 3680052
-0.19737379 0.17957526 0.93979996 3745077
-0.19555706 0.17957526 0.93979996 3810872
-0.19374035 0.17957526 0.93979996 3811131
-0.19294472 0.18053067 0.94479996 3811128
-0.19051148 0.17995743 0.9418 3614773
-0.1886909 0.17995743 0.9418 3482162
-0.18687032 0.17995743 0.9418 3151663
-0.18504973 0.17995743 0.9418 2823978
-0.18284003 0.17957526 0.93979996 2692900
-0.18102333 0.17957526 0.93979996 2627620
-0.17863455 0.17900205 0.9368 2560803
-0.17682365 0.17900205 0.9368 2496034
-0.17501271 0.17900205 0.9368 2627616
-0.1732018 0.17900205 0.9368 2759201
-0.17102496 0.17861988 0.93479997 2759714
-0.16921791 0.17861988 0.93479997 2825508
-0.16741085 0.17861988 0.93479997 2825767
-0.1656038 0.17861988 0.93479997 2891305
-0.16379675 0.17861988 0.93479997 3153452
-0.1619897 0.17861988 0.93479997 3416875
-0.16052535 0.17900205 0.9368 20524074
-0.15871444 0.17900205 0.9368 20920637
-0.16045429 0.1830529 0.958 22369104
-0.15893351 0.18343505 0.95999998 7036769
-0.15707771 0.18343505 0.95999998 8745587
-0.15570703 0.18400829 0.963 10519947
-0.15384546 0.18400829 0.963 11572899
-0.1519839 0.18400829 0.963 12693424
-0.14965466 0.18343505 0.95999998 13350334
-0.14826077 0.18400829 0.963 14075079
-0.1463992 0.18400829 0.963 14469072
-0.14408736 0.18343505 0.95999998 14865366
-0.1422316 0.18343505 0.95999998 15194075
-0.61575377 0.19791697 1.0253999 15061969
-0.6137715 0.19791697 1.0253999 14864848
-0.60988015 0.19729933 1.0222 14732240
-0.6079042 0.19729933 1.0222 14601421
-0.60592812 0.19729933 1.0222 14468043
-0.60395217 0.19729933 1.0222 14337736
-0.6019761 0.19729933 1.0222 14140102
-0.59823918 0.19672029 1.0192 13877186
-0.59626901 0.19672029 1.0192 14138559
-0.59429878 0.19672029 1.0192 14334658
-0.59232861 0.19672029 1.0192 14533573
-0.59035838 0.19672029 1.0192 14732490
-0.58665627 0.19614123 1.0161999 14798031
-0.58469188 0.19614123 1.0161999 14865359
-0.58272743 0.19614123 1.0161999 14929872
-0.58076304 0.19614123 1.0161999 14995664
-0.57879859 0.19614123 1.0161999 15061201
-0.5768342 0.19614123 1.0161999 15126737
-0.57486987 0.19614123 1.0161999 15257809
-0.57290542 0.19614123 1.0161999 15390427
-0.56925547 0.19556218 1.0131999 15522021
-0.56729686 0.19556218 1.0131999 15655652
-0.56533825 0.19556218 1.0131999 15720676
-0.56504774 0.19614123 1.0161999 15786211
-0.56142104 0.19556218 1.0131999 15785699
-0.56111902 0.19614123 1.0161999 15785442
-0.55750382 0.19556218 1.0131999 15654370
-0.55719018 0.19614123 1.0161999 15524323
-0.5535866 0.19556218 1.0131999 15655396
-0.55326134 0.19614123 1.0161999 15787492
-0.54966938 0.19556218 1.0131999 15918309
-0.54933256 0.19614123 1.0161999 16049380
-0.54736817 0.19614123 1.0161999 15917539
-0.54540372 0.19614123 1.0161999 15853540
-0.54343933 0.19614123 1.0161999 15525350
-0.53987634 0.19556218 1.0131999 15263458
-0.53791779 0.19556218 1.0131999 14536158
-0.53595912 0.19556218 1.0131999 13874893
-0.53294647 0.19517615 1.0112 12888253
-0.53099173 0.19517615 1.0112 11966382
-0.52746749 0.19459713 1.0081999 10784415
-0.52551854 0.19459713 1.0081999 9603217
-0.52512753 0.19517615 1.0112 24145028
-0.5231728 0.19517615 1.0112 21975618
-0.52121806 0.19517615 1.0112 20657153
-0.51926327 0.19517615 1.0112 19404295
-0.51730853 0.19517615 1.0112 19471886
-0.5153538 0.19517615 1.0112 2828571
-0.51339906 0.19517615 1.0112 2958377
-0.51144433 0.19517615 1.0112 3089193
-0.5094896 0.19517615 1.0112 3023914
-0.48886368 0.18799603 0.97399998 2959400
-0.48698086 0.18799603 0.97399998 2957607
-0.48360386 0.18741699 0.97099996 2890794
-0.48321518 0.18799603 0.97399998 2759726
-0.48133236 0.18799603 0.97399998 2694704
-0.47944954 0.18799603 0.97399998 2694706
-0.47609577 0.18741699 0.97099996 2694703
-0.47568387 0.18799603 0.97399998 2694188
-0.47380105 0.18799603 0.97399998 2628392
-0.47191823 0.18799603 0.97399998 2497060
-0.47003537 0.18799603 0.97399998 2365991
-0.46815255 0.18799603 0.97399998 2169386
-0.46770591 0.18857507 0.977 1972772
-0.46581724 0.18857507 0.977 2234655
-0.46392861 0.18857507 0.977 2496804
-0.46062124 0.18799603 0.97399998 2825001
-0.45873839 0.18799603 0.97399998 3218983
-0.45685557 0.18799603 0.97399998 3021605
-0.45497274 0.18799603 0.97399998 2824484
-0.45308989 0.18799603 0.97399998 2693156
-0.45120707 0.18799603 0.97399998 2495769
-0.44794029 0.18741699 0.97099996 2364943
-0.44744143 0.18799603 0.97399998 2299932
-0.44418624 0.18741699 0.97099996 2759722
-0.4423092 0.18741699 0.97099996 3219767
-0.44043216 0.18741699 0.97099996 3154757
-0.43720019 0.18683796 0.96799999 3023929
-0.43442953 0.18645191 0.96599996 3088173
-0.43256214 0.18645191 0.96599996 3217958
-0.42935723 0.18587287 0.963 2693152
-0.42749566 0.18587287 0.963 2234148
-0.42563409 0.18587287 0.963 2168616
-0.42377254 0.18587287 0.963 2168618
-0.42191097 0.18587287 0.963 2498348
-0.42135796 0.18645191 0.96599996 2829870
-0.41949058 0.18645191 0.96599996 3024177
-0.41848788 0.18683796 0.96799999 3219506
-0.41661665 0.18683796 0.96799999 2826291
-0.41474542 0.18683796 0.96799999 2498606
-0.41287419 0.18683796 0.96799999 2234921
-0.41100296 0.18683796 0.96799999 1906980
-0.40828639 0.18645191 0.96599996 1972767
-0.40641904 0.18645191 0.96599996 2039080
-0.40455166 0.18645191 0.96599996 2366513
-0.40143374 0.18587287 0.963 2759727
-0.39832741 0.18529382 0.95999998 2956846
-0.39647162 0.18529382 0.95999998 3219752
-0.39461586 0.18529382 0.95999998 2759714
-0.3927601 0.18529382 0.95999998 2300703
-0.39090434 0.18529382 0.95999998 1775644
-0.38904855 0.18529382 0.95999998 1250588
-0.38719282 0.18529382 0.95999998 1643293
-0.38533702 0.18529382 0.95999998 2036244
-0.38348126 0.18529382 0.95999998 2298892
-0.3816255 0.18529382 0.95999998 2627109
-0.37976971 0.18529382 0.95999998 2366015
-0.37791398 0.18529382 0.95999998 2169405
-0.37605819 0.18529382 0.95999998 2957372
-0.37537184 0.18587287 0.963 3679544
-0.37234667 0.18529382 0.95999998 3154229
-0.37164867 0.18587287 0.963 2629165
-0.36978713 0.18587287 0.963 2234662
-0.36677936 0.18529382 0.95999998 1905960
-0.3649236 0.18529382 0.95999998 2364714
-0.36533698 0.18645191 0.96599996 2889265
-0.36346963 0.18645191 0.96599996 3021625
-0.3604793 0.18587287 0.963 3153211
-0.35861772 0.18587287 0.963 3022398
-0.35564476 0.18529382 0.95999998 2891829
-0.35378897 0.18529382 0.95999998 2431789
-0.35193324 0.18529382 0.95999998 2038056
-0.35007745 0.18529382 0.95999998 2038308
-0.34749624 0.18490779 0.958 2102803
-0.34564435 0.18490779 0.958 2364163
-0.34379244 0.18490779 0.958 2625560
-0.34194055 0.18490779 0.958 2758701
-0.34008864 0.18490779 0.958 2955055
-0.33717754 0.18432876 0.95499998 2823985
-0.33533144 0.18432876 0.95499998 2691628
-0.33348534 0.18432876 0.95499998 2429735
-0.33163923 0.18432876 0.95499998 2168352
-0.32910246 0.18394272 0.95299995 1905945
-0.32726023 0.18394272 0.95299995 1709342
-0.325418 0.18394272 0.95299995 1904675
-0.32425481 0.18432876 0.95499998 2036262
-0.32240874 0.18432876 0.95499998 2564137
-0.32056263 0.18432876 0.95499998 3090224
-0.31804904 0.18394272 0.95299995 3155255
-0.31620681 0.18394272 0.95299995 3285554
-0.31436458 0.18394272 0.95299995 3022126
-0.31252232 0.18394272 0.95299995 2758187
-0.31068012 0.18394272 0.95299995 2430248
-0.30883789 0.18394272 0.95299995 2168103
-0.30699563 0.18394272 0.95299995 2299430
-0.3051534 0.18394272 0.95299995 2497065
-0.30331117 0.18394272 0.95299995 2760492
-0.30146891 0.18394272 0.95299995 3024682
-0.29962671 0.18394272 0.95299995 3223081
-0.29778445 0.18394272 0.95299995 3487274
-0.29594222 0.18394272 0.95299995 3353131
-0.29409999 0.18394272 0.95299995 3285801
-0.29133773 0.18336369 0.94999999 2957095
-0.28950131 0.18336369 0.94999999 2628642
-0.28766489 0.18336369 0.94999999 2168862
-0.28582844 0.18336369 0.94999999 1709859
-0.28399202 0.18336369 0.94999999 2168873
-0.28120515 0.18274604 0.94679999 2629680
-0.27937493 0.18274604 0.94679999 3024952
-0.27848271 0.18336369 0.94999999 3420471
-0.27571443 0.18274604 0.94679999 3682614
-0.27480984 0.18336369 0.94999999 3944758
-0.27297339 0.18336369 0.94999999 4009270
-0.27113694 0.18336369 0.94999999 4006958
-0.26839343 0.18274604 0.94679999 3153191
-0.2674641 0.18336369 0.94999999 2234144
-0.2647329 0.18274604 0.94679999 2364698
-0.26151428 0.18178096 0.9418 2496035
-0.25969371 0.18178096 0.9418 2628653
-0.25869453 0.18236001 0.94479996 2761261
-0.25605252 0.18178096 0.9418 2958894
-0.25423193 0.18178096 0.9418 3222321
-0.25241134 0.18178096 0.9418 3353397
-0.251389 0.18236001 0.94479996 3550257
-0.24877019 0.18178096 0.9418 3221037
-0.24773623 0.18236001 0.94479996 2957854
-0.24512902 0.18178096 0.9418 2694415
-0.24330844 0.18178096 0.9418 2366235
-0.24225707 0.18236001 0.94479996 2497319
-0.2404307 0.18236001 0.94479996 2562856
-0.23910941 0.18274604 0.94679999 2759977
-0.23727916 0.18274604 0.94679999 2957101
-0.23495154 0.18236001 0.94479996 3154226
-0.23312517 0.18236001 0.94479996 3351601
-0.23129877 0.18236001 0.94479996 3286064
-0.22874376 0.18178096 0.9418 3286574
-0.22692317 0.18178096 0.9418 3022637
-0.2251026 0.18178096 0.9418 2759978
-0.22280784 0.18139493 0.93979996 2759720
-0.22146142 0.18178096 0.9418 2759723
-0.21964084 0.18178096 0.9418 2891311
-0.21782026 0.18178096 0.9418 3023926
-0.21599968 0.18178096 0.9418 3417917
-0.21417908 0.18178096 0.9418 3813183
-0.21190754 0.18139493 0.93979996 4075586
-0.21009082 0.18139493 0.93979996 4404295
-0.2082741 0.18139493 0.93979996 4404557
-0.20579834 0.18081589 0.9368 4404808
-0.20398742 0.18081589 0.9368 4206916
-0.2021765 0.18081589 0.9368 4010305
-0.20036559 0.18081589 0.9368 3878718
-0.19855466 0.18081589 0.9368 3812927
-0.19674374 0.18081589 0.9368 3812929
-0.19555706 0.18139493 0.93979996 3878468
-0.19374035 0.18139493 0.93979996 3878471
-0.19192362 0.18139493 0.93979996 3944003
-0.18950006 0.18081589 0.9368 3812159
-0.18768914 0.18081589 0.9368 3680826
-0.18548138 0.18042988 0.93479997 3351605
-0.18406732 0.18081589 0.9368 3023150
-0.18225639 0.18081589 0.9368 2825767
-0.18044548 0.18081589 0.9368 2693925
-0.17825317 0.18042988 0.93479997 2365732
-0.17644612 0.18042988 0.93479997 2103584
-0.17463906 0.18042988 0.93479997 2365469
-0.17283201 0.18042988 0.93479997 2693151
-0.17047609 0.17985082 0.93179995 2759201
-0.16867484 0.17985082 0.93179995 2824995
-0.16687359 0.17985082 0.93179995 2759974
-0.16507234 0.17985082 0.93179995 2760746
-0.16327108 0.17985082 0.93179995 3087919
-0.1619897 0.18042988 0.93479997 3482156
-0.16018265 0.18042988 0.93479997 20656938
-0.16040866 0.18274604 0.94679999 21052991
-0.15995181 0.18432876 0.95499998 22631509
-0.15860239 0.18490779 0.958 7431273
-0.15675049 0.18490779 0.958 9009278
-0.15522195 0.18529382 0.95999998 10589072
-0.15336619 0.18529382 0.95999998 11705762
-0.15151042 0.18529382 0.95999998 12826038
-0.14965466 0.18529382 0.95999998 13483210
-0.1477989 0.18529382 0.95999998 14209747
-0.14594314 0.18529382 0.95999998 14668509
-0.14408736 0.18529382 0.95999998 15127260
-0.1422316 0.18529382 0.95999998 15325660
-0.61575377 0.19990237 1.0253999 14730703
-0.61185616 0.19927853 1.0222 14599628
-0.60988015 0.19927853 1.0222 14598601
-0.6079042 0.19927853 1.0222 14598600
-0.60592812 0.19927853 1.0222 14402246
-0.60395217 0.19927853 1.0222 14270660
-0.60020947 0.19869368 1.0192 13941954
-0.59823918 0.19869368 1.0192 13680322
-0.59451389 0.19810882 1.0161999 14073539
-0.59429878 0.19869368 1.0192 14468294
-0.59058505 0.19810882 1.0161999 14798025
-0.59035838 0.19869368 1.0192 15125708
-0.58665627 0.19810882 1.0161999 15060432
-0.58469188 0.19810882 1.0161999 14995409
-0.58272743 0.19810882 1.0161999 15060947
-0.58076304 0.19810882 1.0161999 15192276
-0.57879859 0.19810882 1.0161999 15257813
-0.5751313 0.19752397 1.0131999 15323349
-0.57317269 0.19752397 1.0131999 15389141
-0.57121408 0.19752397 1.0131999 15455964
-0.5681318 0.19713406 1.0112 15587554
-0.56617707 0.19713406 1.0112 15719907
-0.56422234 0.19713406 1.0112 15786213
-0.5633797 0.19752397 1.0131999 15917285
-0.56142104 0.19752397 1.0131999 15917541
-0.55946249 0.19752397 1.0131999 15916772
-0.55750382 0.19752397 1.0131999 15850211
-0.55554527 0.19752397 1.0131999 15852004
-0.5535866 0.19752397 1.0131999 15852261
-0.55162805 0.19752397 1.0131999 15851748
-0.54966938 0.19752397 1.0131999 15850210
-0.54771078 0.19752397 1.0131999 15917794
-0.54575223 0.19752397 1.0131999 15917283
-0.54379356 0.19752397 1.0131999 15981278
-0.54183501 0.19752397 1.0131999 15324121
-0.53987634 0.19752397 1.0131999 14666704
-0.53791779 0.19752397 1.0131999 13613767
-0.5349012 0.19713406 1.0112 12626364
-0.53294647 0.19713406 1.0112 11901105
-0.52941638 0.19654921 1.0081999 11176862
-0.52746749 0.19654921 1.0081999 9600907
-0.52551854 0.19654921 1.0081999 24798315
-0.52356958 0.19654921 1.0081999 21776716
-0.52162063 0.19654921 1.0081999 18755636
-0.51967168 0.19654921 1.0081999 19405084
-0.51772273 0.19654921 1.0081999 20061211
-0.51577377 0.19654921 1.0081999 2892570
-0.51382488 0.19654921 1.0081999 2565154
-0.51187593 0.19654921 1.0081999 2827562
-0.51144433 0.19713406 1.0112 3154989
-0.48520419 0.18773746 0.963 3024432
-0.48735791 0.18929705 0.97099996 2892844
-0.4854809 0.18929705 0.97099996 2892328
-0.48360386 0.18929705 0.97099996 2957354
-0.48172686 0.18929705 0.97099996 2761004
-0.47984979 0.18929705 0.97099996 2563629
-0.47797278 0.18929705 0.97099996 2629166
-0.47609577 0.18929705 0.97099996 2758956
-0.47421873 0.18929705 0.97099996 2627370
-0.47234169 0.18929705 0.97099996 2561572
-0.47046465 0.18929705 0.97099996 2364702
-0.46858764 0.18929705 0.97099996 2233891
-0.4667106 0.18929705 0.97099996 2168616
-0.46770591 0.19046676 0.977 2168613
-0.46581724 0.19046676 0.977 2299938
-0.46487832 0.19085667 0.97899997 2430757
-0.46062124 0.18988192 0.97399998 3020585
-0.45873839 0.18988192 0.97399998 3610920
-0.45544842 0.18929705 0.97099996 3284263
-0.45357138 0.18929705 0.97099996 2956587
-0.45308989 0.18988192 0.97399998 2694446
-0.44981733 0.18929705 0.97099996 2497060
-0.44794029 0.18929705 0.97099996 2300443
-0.44606325 0.18929705 0.97099996 2103586
-0.44418624 0.18929705 0.97099996 2432553
-0.4423092 0.18929705 0.97099996 2825779
-0.44043216 0.18929705 0.97099996 2957885
-0.43720019 0.18871221 0.96799999 3088950
-0.43442953 0.18832231 0.96599996 3483183
-0.43256214 0.18832231 0.96599996 3874856
-0.42935723 0.18773746 0.963 3153441
-0.42749566 0.18773746 0.963 2496036
-0.42563409 0.18773746 0.963 2233639
-0.42377254 0.18773746 0.963 1971490
-0.42191097 0.18773746 0.963 2233885
-0.42135796 0.18832231 0.96599996 2497319
-0.41688505 0.18715261 0.95999998 2563633
-0.41502929 0.18715261 0.95999998 2629433
-0.41317353 0.18715261 0.95999998 2566210
-0.41474542 0.18871221 0.96799999 2498357
-0.41287419 0.18871221 0.96799999 2104105
-0.41015378 0.18832231 0.96599996 1774881
-0.40828639 0.18832231 0.96599996 1774105
-0.40515688 0.18773746 0.963 1840163
-0.40329531 0.18773746 0.963 2233646
-0.40018314 0.18715261 0.95999998 2693422
-0.39957219 0.18773746 0.963 2628655
-0.39647162 0.18715261 0.95999998 2562857
-0.39461586 0.18715261 0.95999998 2365219
-0.3927601 0.18715261 0.95999998 2234400
-0.39090434 0.18715261 0.95999998 1973022
-0.38904855 0.18715261 0.95999998 1709344
-0.38719282 0.18715261 0.95999998 2037026
-0.38533702 0.18715261 0.95999998 2364699
-0.38348126 0.18715261 0.95999998 2561557
-0.3816255 0.18715261 0.95999998 2758952
-0.37976971 0.18715261 0.95999998 2103868
-0.37712663 0.18676271 0.958 1448505
-0.37527475 0.18676271 0.958 2038582
-0.37420243 0.18715261 0.95999998 2693682
-0.37234667 0.18715261 0.95999998 2562350
-0.37049088 0.18715261 0.95999998 2431014
-0.36978713 0.18773746 0.963 2364701
-0.36677936 0.18715261 0.95999998 2364708
-0.3649236 0.18715261 0.95999998 2692396
-0.36420241 0.18773746 0.963 3022384
-0.36234084 0.18773746 0.963 3090741
-0.35935628 0.18715261 0.95999998 3220280
-0.35750055 0.18715261 0.95999998 2955835
-0.35490385 0.18676271 0.958 2759219
-0.35194635 0.18617786 0.95499998 2101292
-0.35010025 0.18617786 0.95499998 1513766
-0.34825414 0.18617786 0.95499998 1776161
-0.34640804 0.18617786 0.95499998 2102809
-0.34456193 0.18617786 0.95499998 2365458
-0.34271583 0.18617786 0.95499998 2627875
-0.34086972 0.18617786 0.95499998 2760245
-0.33902362 0.18617786 0.95499998 2956082
-0.33717754 0.18617786 0.95499998 2955056
-0.33533144 0.18617786 0.95499998 2954794
-0.33348534 0.18617786 0.95499998 2757668
-0.33163923 0.18617786 0.95499998 2561562
-0.32910246 0.18578795 0.95299995 2168337
-0.32726023 0.18578795 0.95299995 1840409
-0.325418 0.18578795 0.95299995 2297889
-0.32357574 0.18578795 0.95299995 2824229
-0.3217335 0.18578795 0.95299995 3222570
-0.3198913 0.18578795 0.95299995 3616304
-0.31804904 0.18578795 0.95299995 3617590
-0.31620681 0.18578795 0.95299995 3681078
-0.31436458 0.18578795 0.95299995 3548982
-0.31252232 0.18578795 0.95299995 3415855
-0.3097021 0.18520311 0.94999999 2824744
-0.30883789 0.18578795 0.95299995 2234401
-0.30699563 0.18578795 0.95299995 2299417
-0.3051534 0.18578795 0.95299995 2431010
-0.30331117 0.18578795 0.95299995 2761002
-0.30146891 0.18578795 0.95299995 3156010
-0.29962671 0.18578795 0.95299995 3421227
-0.29778445 0.18578795 0.95299995 3683375
-0.29501063 0.18520311 0.94999999 3749427
-0.29317421 0.18520311 0.94999999 3813166
-0.29035643 0.18457925 0.94679999 3353130
-0.28852615 0.18457925 0.94679999 2957343
-0.28669593 0.18457925 0.94679999 2496789
-0.28486565 0.18457925 0.94679999 2037788
-0.28303543 0.18457925 0.94679999 2234147
-0.28120515 0.18457925 0.94679999 2432554
-0.27937493 0.18457925 0.94679999 2827570
-0.27754465 0.18457925 0.94679999 3222068
-0.27571443 0.18457925 0.94679999 3616567
-0.27388415 0.18457925 0.94679999 4075838
-0.27205393 0.18457925 0.94679999 4472133
-0.27022365 0.18457925 0.94679999 4862009
-0.26782647 0.18418935 0.94479996 3809837
-0.26600006 0.18418935 0.94479996 2823975
-0.26333487 0.18360451 0.9418 2692385
-0.26234728 0.18418935 0.94479996 2562087
-0.25969371 0.18360451 0.9418 2694190
-0.25787312 0.18360451 0.9418 2826542
-0.25605252 0.18360451 0.9418 3089710
-0.25423193 0.18360451 0.9418 3418161
-0.25241134 0.18360451 0.9418 3550517
-0.2505908 0.18360451 0.9418 3746867
-0.24877019 0.18360451 0.9418 3418674
-0.24694961 0.18360451 0.9418 3089704
-0.24512902 0.18360451 0.9418 2957343
-0.24330844 0.18360451 0.9418 2826276
-0.24148785 0.18360451 0.9418 2891817
-0.2404307 0.18418935 0.94479996 2957867
-0.23910941 0.18457925 0.94679999 3089965
-0.23677792 0.18418935 0.94479996 3221295
-0.23495154 0.18418935 0.94479996 3418930
-0.23238494 0.18360451 0.9418 3680564
-0.23056434 0.18360451 0.9418 3680310
-0.22874376 0.18360451 0.9418 3679795
-0.22644128 0.18321459 0.93979996 3351089
-0.22462456 0.18321459 0.93979996 3088430
-0.22280784 0.18321459 0.93979996 2957099
-0.22099112 0.18321459 0.93979996 2825773
-0.2191744 0.18321459 0.93979996 2891311
-0.21735768 0.18321459 0.93979996 3023926
-0.21554096 0.18321459 0.93979996 3483965
-0.21372426 0.18321459 0.93979996 3943234
-0.21190754 0.18321459 0.93979996 4140615
-0.20942017 0.18262975 0.9368 4404300
-0.20760927 0.18262975 0.9368 4404306
-0.20535897 0.18223985 0.93479997 4404558
-0.20355192 0.18223985 0.93479997 4207178
-0.20174485 0.18223985 0.93479997 4076616
-0.19993781 0.18223985 0.93479997 4011333
-0.19813076 0.18223985 0.93479997 4010823
-0.19632371 0.18223985 0.93479997 3945034
-0.19451666 0.18223985 0.93479997 3945035
-0.19312191 0.18262975 0.9368 4010573
-0.19131099 0.18262975 0.9368 4075593
-0.18909548 0.18223985 0.93479997 3944261
-0.18728843 0.18223985 0.93479997 3878720
-0.18488613 0.18165499 0.93179995 3551292
-0.18308488 0.18165499 0.93179995 3221301
-0.18128362 0.18165499 0.93179995 3024430
-0.17948236 0.18165499 0.93179995 2826026
-0.1776811 0.18165499 0.93179995 2235943
-0.17587985 0.18165499 0.93179995 1710368
-0.17407861 0.18165499 0.93179995 2169624
-0.17227736 0.18165499 0.93179995 2693662
-0.17047609 0.18165499 0.93179995 2759204
-0.16867484 0.18165499 0.93179995 2890533
-0.16651542 0.18126509 0.92979997 2759719
-0.16471803 0.18126509 0.92979997 2628908
-0.16292064 0.18126509 0.92979997 3087922
-0.1619897 0.18223985 0.93479997 3547438
-0.16018265 0.18223985 0.93479997 20791082
-0.16095079 0.18520311 0.94999999 21249601
-0.15995181 0.18617786 0.95499998 22959705
-0.15860239 0.18676271 0.958 7890285
-0.15675049 0.18676271 0.958 9272706
-0.15489858 0.18676271 0.958 10654869
-0.15304668 0.18676271 0.958 11837865
-0.15151042 0.18715261 0.95999998 13023162
-0.14934288 0.18676271 0.958 13680844
-0.14749098 0.18676271 0.958 14340052
-0.14563908 0.18676271 0.958 14865116
-0.14378718 0.18676271 0.958 15390686
-0.14193527 0.18676271 0.958 15457760
-0.61383218 0.20125775 1.0222 14468558
-0.61006045 0.20066708 1.0192 14469064
-0.60809022 0.20066708 1.0192 14401475
-0.60612005 0.20066708 1.0192 14400962
-0.60414982 0.20066708 1.0192 14269890
-0.60217965 0.20066708 1.0192 14138816
-0.59844273 0.20007642 1.0161999 14269887
-0.59647828 0.20007642 1.0161999 14467779
-0.59275877 0.19948575 1.0131999 14665671
-0.59254944 0.20007642 1.0161999 14864074
-0.58884156 0.19948575 1.0131999 14994638
-0.58862066 0.20007642 1.0161999 15194319
-0.58665627 0.20007642 1.0161999 15127249
-0.58296573 0.19948575 1.0131999 15126739
-0.58100712 0.19948575 1.0131999 15258070
-0.57904851 0.19948575 1.0131999 15390679
-0.57708991 0.19948575 1.0131999 15456217
-0.57399607 0.19909199 1.0112 15522265
-0.57204127 0.19909199 1.0112 15521754
-0.57008654 0.19909199 1.0112 15522013
-0.56644624 0.19850132 1.0081999 15587552
-0.56617707 0.19909199 1.0112 15719395
-0.56422234 0.19909199 1.0112 15785702
-0.5622676 0.19909199 1.0112 15917798
-0.56031287 0.19909199 1.0112 15917799
-0.55835813 0.19909199 1.0112 15917797
-0.5564034 0.19909199 1.0112 15917796
-0.5544486 0.19909199 1.0112 15983333
-0.55249387 0.19909199 1.0112 15983079
-0.55053914 0.19909199 1.0112 15982819
-0.5485844 0.19909199 1.0112 15851744
-0.54771078 0.19948575 1.0131999 15721441
-0.54575223 0.19948575 1.0131999 15391203
-0.54379356 0.19948575 1.0131999 15061975
-0.54183501 0.19948575 1.0131999 14337484
-0.53881073 0.19909199 1.0112 13680830
-0.53685594 0.19909199 1.0112 12889520
-0.5349012 0.19909199 1.0112 12164267
-0.53136533 0.19850132 1.0081999 10916774
-0.52941638 0.19850132 1.0081999 9732494
-0.52746749 0.19850132 1.0081999 7496311
-0.52395487 0.19791068 1.0052 22037318
-0.5220117 0.19791068 1.0052 20719637
-0.52006853 0.19791068 1.0052 19467814
-0.51967168 0.19850132 1.0081999 19733047
-0.51772273 0.19850132 1.0081999 3153966
-0.51577377 0.19850132 1.0081999 2957862
-0.51382488 0.19850132 1.0081999 2696233
-0.51187593 0.19850132 1.0081999 3023404
-0.50992697 0.19850132 1.0081999 3285041
-0.48520419 0.18960205 0.963 3154230
-0.48334265 0.18960205 0.963 2957872
-0.4854809 0.19117713 0.97099996 2891818
-0.48111364 0.1901927 0.96599996 2760234
-0.4802385 0.19058648 0.96799999 2629162
-0.47984979 0.19117713 0.97099996 2563626
-0.47649607 0.19058648 0.96799999 2497066
-0.47462481 0.19058648 0.96799999 2495529
-0.47421873 0.19117713 0.97099996 2429993
-0.47234169 0.19117713 0.97099996 2364449
-0.47046465 0.19117713 0.97099996 2233369
-0.46858764 0.19117713 0.97099996 2101791
-0.4667106 0.19117713 0.97099996 2102310
-0.46626973 0.1917678 0.97399998 2167846
-0.46581724 0.19235846 0.977 2167334
-0.46487832 0.19275223 0.97899997 2232615
-0.46062124 0.1917678 0.97399998 2626089
-0.45732546 0.19117713 0.97099996 3019561
-0.45544842 0.19117713 0.97099996 2824234
-0.4512358 0.1901927 0.96599996 2694449
-0.45169437 0.19117713 0.97099996 2497337
-0.44981733 0.19117713 0.97099996 2366000
-0.44655636 0.19058648 0.96799999 1906215
-0.44606325 0.19117713 0.97099996 1511976
-0.44418624 0.19117713 0.97099996 2037033
-0.44094267 0.19058648 0.96799999 2562095
-0.43907145 0.19058648 0.96799999 2693173
-0.43629685 0.1901927 0.96599996 2824755
-0.43442953 0.1901927 0.96599996 2957105
-0.4312188 0.18960205 0.963 3154473
-0.42935723 0.18960205 0.963 2693666
-0.42749566 0.18960205 0.963 2233636
-0.42563409 0.18960205 0.963 2102567
-0.42377254 0.18960205 0.963 2036250
-0.42191097 0.18960205 0.963 2298638
-0.42004943 0.18960205 0.963 2560800
-0.41818783 0.18960205 0.963 2299954
-0.41762322 0.1901927 0.96599996 2038593
-0.41446471 0.18960205 0.963 2104401
-0.41260314 0.18960205 0.963 2170429
-0.41202113 0.1901927 0.96599996 1840937
-0.41015378 0.1901927 0.96599996 1511710
-0.40701842 0.18960205 0.963 1839379
-0.40515688 0.18960205 0.963 2167071
-0.40329531 0.18960205 0.963 2561323
-0.40018314 0.18901138 0.95999998 2955309
-0.39957219 0.18960205 0.963 2824496
-0.39647162 0.18901138 0.95999998 2759210
-0.39461586 0.18901138 0.95999998 2495780
-0.3927601 0.18901138 0.95999998 2233634
-0.39090434 0.18901138 0.95999998 2037024
-0.38904855 0.18901138 0.95999998 1840419
-0.38719282 0.18901138 0.95999998 2102567
-0.38533702 0.18901138 0.95999998 2430243
-0.38268235 0.1886176 0.958 3021343
-0.38083044 0.1886176 0.958 3547692
-0.37897855 0.1886176 0.958 2891833
-0.37594566 0.18802693 0.95499998 2170420
-0.37409955 0.18802693 0.95499998 2497584
-0.37342283 0.1886176 0.958 2757932
-0.37157094 0.1886176 0.958 2562088
-0.36971906 0.1886176 0.958 2299678
-0.36786717 0.1886176 0.958 2364693
-0.36410493 0.18763316 0.95299995 2429729
-0.3622627 0.18763316 0.95299995 2825006
-0.35928589 0.1870425 0.94999999 3155760
-0.35857821 0.18763316 0.95299995 3353394
-0.35748464 0.18802693 0.95499998 3550517
-0.35563853 0.18802693 0.95499998 3416888
-0.35305151 0.18763316 0.95299995 3349298
-0.35120925 0.18763316 0.95299995 2693676
-0.34936702 0.18763316 0.95299995 2038309
-0.34752482 0.18763316 0.95299995 2103838
-0.34568256 0.18763316 0.95299995 2168096
-0.34384033 0.18763316 0.95299995 2430754
-0.3419981 0.18763316 0.95299995 2628655
-0.34086972 0.18802693 0.95499998 2826557
-0.33831364 0.18763316 0.95299995 3024694
-0.33647141 0.18763316 0.95299995 3089199
-0.33462915 0.18763316 0.95299995 3220008
-0.33278692 0.18763316 0.95299995 3023394
-0.33094469 0.18763316 0.95299995 2892821
-0.32910246 0.18763316 0.95299995 2234889
-0.32726023 0.18763316 0.95299995 1578260
-0.325418 0.18763316 0.95299995 2102560
-0.32357574 0.18763316 0.95299995 2694181
-0.3217335 0.18763316 0.95299995 3024683
-0.3198913 0.18763316 0.95299995 3420976
-0.31804904 0.18763316 0.95299995 3617078
-0.31620681 0.18763316 0.95299995 3878970
-0.313375 0.1870425 0.94999999 4140351
-0.31153855 0.1870425 0.94999999 4400948
-0.3097021 0.1870425 0.94999999 3481897
-0.30786568 0.1870425 0.94999999 2563355
-0.30602923 0.1870425 0.94999999 2299149
-0.30419281 0.1870425 0.94999999 2037019
-0.30235639 0.1870425 0.94999999 2498857
-0.30051991 0.1870425 0.94999999 2959659
-0.29868349 0.1870425 0.94999999 3222829
-0.29684705 0.1870425 0.94999999 3551540
-0.29501063 0.1870425 0.94999999 4010811
-0.29317421 0.1870425 0.94999999 4406068
-0.29035643 0.18641247 0.94679999 3879469
-0.28852615 0.18641247 0.94679999 3416860
-0.28609028 0.18601869 0.94479996 2956556
-0.28426388 0.18601869 0.94479996 2562581
-0.28303543 0.18641247 0.94679999 2562846
-0.28061116 0.18601869 0.94479996 2628901
-0.27878475 0.18601869 0.94479996 2892076
-0.27754465 0.18641247 0.94679999 3089202
-0.27513197 0.18601869 0.94479996 3484472
-0.27388415 0.18641247 0.94679999 3879238
-0.27147919 0.18601869 0.94479996 4209236
-0.26965284 0.18601869 0.94479996 4538692
-0.26782647 0.18601869 0.94479996 3811124
-0.26515546 0.18542804 0.9418 3151662
-0.26333487 0.18542804 0.9418 2955305
-0.26151428 0.18542804 0.9418 2693676
-0.25969371 0.18542804 0.9418 2825519
-0.25787312 0.18542804 0.9418 2957615
-0.25605252 0.18542804 0.9418 3220783
-0.25423193 0.18542804 0.9418 3417650
-0.25241134 0.18542804 0.9418 3681589
-0.2505908 0.18542804 0.9418 3944246
-0.24877019 0.18542804 0.9418 3615288
-0.24694961 0.18542804 0.9418 3352883
-0.24512902 0.18542804 0.9418 3154991
-0.24330844 0.18542804 0.9418 3023149
-0.24148785 0.18542804 0.9418 2958380
-0.23966727 0.18542804 0.9418 2959151
-0.23784669 0.18542804 0.9418 3024434
-0.23602609 0.18542804 0.9418 3091250
-0.23420551 0.18542804 0.9418 3353650
-0.23189144 0.18503426 0.93979996 3681591
-0.2300747 0.18503426 0.93979996 4008764
-0.228258 0.18503426 0.93979996 4336185
-0.22571844 0.18444361 0.9368 3811126
-0.22390753 0.18444361 0.9368 3352114
-0.22209661 0.18444361 0.9368 3155759
-0.2202857 0.18444361 0.9368 2959919
-0.21847476 0.18444361 0.9368 2891311
-0.21735768 0.18503426 0.93979996 2827830
-0.21554096 0.18503426 0.93979996 3352637
-0.21372426 0.18503426 0.93979996 3811396
-0.2112311 0.18444361 0.9368 4206924
-0.20942017 0.18444361 0.9368 4601426
-0.20716602 0.18404983 0.93479997 4601432
-0.20535897 0.18404983 0.93479997 4667220
-0.20289867 0.18345916 0.93179995 4601937
-0.20109741 0.18345916 0.93179995 4537167
-0.19929616 0.18345916 0.93179995 4339789
-0.19813076 0.18404983 0.93479997 4208464
-0.19632371 0.18404983 0.93479997 4142675
-0.19451666 0.18404983 0.93479997 4142675
-0.19270959 0.18404983 0.93479997 4207956
-0.19090253 0.18404983 0.93479997 4273488
-0.18848863 0.18345916 0.93179995 4010828
-0.18668738 0.18345916 0.93179995 3748679
-0.18488613 0.18345916 0.93179995 3419459
-0.18308488 0.18345916 0.93179995 3090492
-0.18128362 0.18345916 0.93179995 2892853
-0.17948236 0.18345916 0.93179995 2695216
-0.1776811 0.18345916 0.93179995 2432043
-0.17587985 0.18345916 0.93179995 2169119
-0.17370498 0.1830654 0.92979997 2431508
-0.17190759 0.1830654 0.92979997 2759197
-0.1701102 0.1830654 0.92979997 2824999
-0.1683128 0.1830654 0.92979997 2891304
-0.16651542 0.1830654 0.92979997 2825001
